ply
format ascii 1.0
element vertex 236
property float32 x
property float32 y
property float32 z
property float32 I
end_header
-11.6707 13.0956 3.0930 0.9312
2.5558 17.6864 2.7376 0.9302
-11.2189 12.5885 2.1958 0.9342
-12.6947 11.9628 2.2715 0.9321
-11.3411 12.7256 1.8304 0.9337
-12.8346 12.0946 1.8937 0.9315
2.5239 17.4660 1.4939 0.9316
-12.7281 11.9943 1.4805 0.9322
2.4841 17.1907 1.0771 0.9328
-12.0532 13.5248 1.1234 0.9300
2.5863 17.8977 0.3055 0.9302
4.2196 17.9685 -0.1039 0.9288
2.6102 18.0630 -0.1028 0.9296
2.6916 18.6259 -0.5299 0.9275
-0.9082 7.6661 -0.7411 0.9695
11.7168 12.4885 -2.0341 0.9333
10.5853 13.4609 -2.0341 0.9333
8.0907 15.0925 -2.0341 0.9333
2.4491 16.9481 -2.0341 0.9333
-0.5269 17.1159 -2.0341 0.9333
-0.9105 7.6857 -0.9193 0.9693
-1.5468 7.4367 -0.9023 0.9699
-2.2069 7.3363 -0.9100 0.9696
-7.7014 15.2937 -2.0340 0.9334
-10.2365 13.7262 -2.0340 0.9334
-11.3922 12.7831 -2.0339 0.9334
8.8741 11.2848 -2.0341 0.9437
5.6558 13.1950 -2.0341 0.9437
4.4860 13.6371 -2.0341 0.9437
3.2820 13.9758 -2.0341 0.9437
2.0532 14.2083 -2.0341 0.9437
0.8088 14.3330 -2.0341 0.9437
-0.4417 14.3489 -2.0341 0.9437
-1.4976 7.2004 -1.0420 0.9707
-2.2146 7.3618 -1.0893 0.9694
-6.4564 12.8214 -2.0340 0.9437
-7.5477 12.2107 -2.0340 0.9437
8.4481 9.0046 -2.0341 0.9512
7.6324 9.7057 -2.0341 0.9512
6.7587 10.3332 -2.0341 0.9512
2.8228 12.0202 -2.0341 0.9512
1.7659 12.2202 -2.0341 0.9512
-0.3799 12.3412 -2.0340 0.9512
-0.8727 7.3661 -1.2220 0.9704
-5.5530 11.0274 -2.0340 0.9512
-6.4916 10.5022 -2.0340 0.9512
-7.3810 9.8972 -2.0339 0.9512
-8.2144 9.2172 -2.0339 0.9512
-8.9854 8.4673 -2.0339 0.9512
7.4043 7.8921 -2.0341 0.9569
5.9236 9.0565 -2.0341 0.9569
3.3816 10.2797 -2.0340 0.9569
-0.8643 7.2954 -1.3808 0.9705
-1.5091 7.2558 -1.3930 0.9703
-2.1598 7.1797 -1.4092 0.9699
-5.6896 9.2046 -2.0340 0.9569
-6.4691 8.6745 -2.0339 0.9569
-7.1995 8.0785 -2.0339 0.9569
6.5839 7.0176 -2.0340 0.9614
5.9482 7.5640 -2.0340 0.9614
5.2673 8.0530 -2.0340 0.9614
4.5464 8.4809 -2.0340 0.9614
3.7910 8.8444 -2.0340 0.9614
2.1998 9.3678 -2.0340 0.9614
1.3763 9.5237 -2.0340 0.9614
0.5421 9.6073 -2.0340 0.9614
-0.8657 7.3073 -1.5554 0.9704
-1.4821 7.1261 -1.5386 0.9707
-2.0922 6.9550 -1.5352 0.9707
-3.5634 8.9382 -2.0340 0.9614
-5.7524 7.7134 -2.0339 0.9614
-6.4018 7.1834 -2.0339 0.9614
-7.0027 6.5990 -2.0339 0.9614
5.9216 6.3116 -2.0340 0.9651
5.3498 6.8031 -2.0340 0.9651
4.7373 7.2428 -2.0340 0.9651
4.0890 7.6277 -2.0340 0.9651
1.2377 8.5655 -2.0340 0.9651
-0.2663 8.6503 -2.0340 0.9651
-0.8673 7.3207 -1.7326 0.9702
-1.5647 7.5233 -1.8060 0.9689
-2.1782 7.2407 -1.7771 0.9694
-3.2049 8.0390 -2.0340 0.9651
-4.5503 7.3614 -2.0339 0.9651
-5.7578 6.4608 -2.0339 0.9651
-6.2982 5.9351 -2.0339 0.9651
5.3750 5.7291 -2.0340 0.9681
4.8560 6.1752 -2.0340 0.9681
4.3002 6.5744 -2.0340 0.9681
3.7116 6.9237 -2.0340 0.9681
3.0949 7.2204 -2.0340 0.9681
2.4547 7.4624 -2.0340 0.9681
1.7959 7.6477 -2.0340 0.9681
1.1235 7.7750 -2.0340 0.9681
0.4426 7.8432 -2.0340 0.9681
-0.2417 7.8520 -2.0340 0.9681
-0.8801 7.4292 -1.9370 0.9696
-2.2630 7.5226 -2.0340 0.9681
-2.9091 7.2971 -2.0340 0.9681
-3.5331 7.0162 -2.0339 0.9681
-4.6962 6.2972 -2.0339 0.9681
-5.7170 5.3874 -2.0339 0.9681
4.9160 5.2398 -2.0340 0.9706
4.4413 5.6478 -2.0340 0.9706
3.9329 6.0129 -2.0340 0.9706
3.3946 6.3324 -2.0340 0.9706
2.8306 6.6038 -2.0340 0.9706
1.6426 6.9946 -2.0340 0.9706
-0.2211 7.1814 -2.0340 0.9706
-0.8453 7.1349 -2.0340 0.9706
-2.0697 6.8802 -2.0340 0.9706
-2.6607 6.6739 -2.0340 0.9706
-3.2314 6.4171 -2.0339 0.9706
-4.7801 5.3637 -2.0339 0.9706
4.0877 5.1982 -2.0340 0.9727
3.6198 5.5342 -2.0340 0.9727
3.1244 5.8283 -2.0340 0.9727
1.5118 6.4378 -2.0340 0.9727
-1.9050 6.3324 -2.0340 0.9727
-2.4489 6.1426 -2.0339 0.9727
-2.9742 5.9062 -2.0339 0.9727
-3.4769 5.6249 -2.0339 0.9727
-3.9532 5.3009 -2.0339 0.9727
-4.3996 4.9367 -2.0339 0.9727
4.1867 4.4624 -2.0340 0.9745
3.3495 5.1209 -2.0340 0.9745
2.8910 5.3929 -2.0340 0.9745
2.4107 5.6241 -2.0340 0.9745
1.9120 5.8126 -2.0340 0.9745
0.8752 6.0560 -2.0340 0.9745
0.3447 6.1092 -2.0340 0.9745
-0.1883 6.1160 -2.0340 0.9745
-0.7199 6.0764 -2.0340 0.9745
-1.2460 5.9907 -2.0340 0.9745
-2.7520 5.4650 -2.0339 0.9745
-3.6580 4.9050 -2.0339 0.9745
3.5159 4.4709 -2.0340 0.9761
3.1134 4.7600 -2.0340 0.9761
0.8134 5.6292 -2.0340 0.9761
0.3204 5.6787 -2.0340 0.9761
-0.6691 5.6482 -2.0340 0.9761
-1.1582 5.5685 -2.0340 0.9761
-1.6384 5.4465 -2.0339 0.9761
-2.1062 5.2832 -2.0339 0.9761
-2.5581 5.0799 -2.0339 0.9761
-3.4002 4.5593 -2.0339 0.9761
-4.1393 3.9006 -2.0339 0.9761
3.2809 4.1721 -2.0340 0.9775
2.9053 4.4419 -2.0340 0.9775
2.0910 4.8783 -2.0340 0.9775
1.2134 5.1670 -2.0340 0.9775
0.7591 5.2530 -2.0340 0.9775
0.2990 5.2991 -2.0340 0.9775
-0.1633 5.3050 -2.0340 0.9775
-1.5289 5.0825 -2.0339 0.9775
-1.9654 4.9302 -2.0339 0.9775
-2.3871 4.7404 -2.0339 0.9775
-2.7906 4.5146 -2.0339 0.9775
-3.5312 3.9623 -2.0339 0.9775
-3.8626 3.6399 -2.0339 0.9775
2.7204 4.1590 -2.0340 0.9787
1.9579 4.5678 -2.0340 0.9787
1.5529 4.7208 -2.0340 0.9787
1.1362 4.8380 -2.0340 0.9787
0.7108 4.9186 -2.0340 0.9787
-0.1529 4.9673 -2.0340 0.9787
-0.5846 4.9351 -2.0340 0.9788
-1.8403 4.6163 -2.0339 0.9788
-2.2351 4.4386 -2.0339 0.9788
-2.9709 3.9837 -2.0339 0.9788
-3.3063 3.7100 -2.0339 0.9788
-3.6166 3.4082 -2.0339 0.9788
2.8849 3.6686 -2.0340 0.9798
2.5547 3.9058 -2.0340 0.9798
2.2050 4.1133 -2.0340 0.9798
1.8387 4.2896 -2.0340 0.9798
1.4584 4.4333 -2.0340 0.9798
0.6675 4.6190 -2.0340 0.9798
0.2629 4.6596 -2.0340 0.9798
-0.9504 4.5691 -2.0339 0.9798
-1.7282 4.3351 -2.0339 0.9798
-2.0990 4.1682 -2.0339 0.9798
-2.7900 3.7411 -2.0339 0.9798
-3.1050 3.4841 -2.0339 0.9798
-3.3964 3.2006 -2.0339 0.9798
3.0065 3.2046 -2.0340 0.9808
2.0761 3.8727 -2.0340 0.9808
1.0046 4.2777 -2.0340 0.9808
0.2475 4.3871 -2.0340 0.9808
-0.5170 4.3635 -2.0339 0.9808
-1.2658 4.2078 -2.0339 0.9808
-1.6272 4.0816 -2.0339 0.9808
-2.3103 3.7376 -2.0339 0.9808
-2.6268 3.5224 -2.0339 0.9808
-2.9234 3.2803 -2.0339 0.9808
-3.1978 3.0135 -2.0339 0.9808
2.2697 3.4701 -2.0340 0.9817
1.6336 3.8112 -2.0340 0.9817
1.2957 3.9389 -2.0340 0.9817
0.9479 4.0367 -2.0340 0.9817
0.5930 4.1038 -2.0340 0.9817
-0.4878 4.1177 -2.0339 0.9817
-0.8443 4.0596 -2.0339 0.9817
-1.5355 3.8516 -2.0339 0.9817
-1.8649 3.7034 -2.0339 0.9817
-3.0176 2.8437 -2.0339 0.9817
0.5607 3.8803 -2.0339 0.9825
-0.4612 3.8934 -2.0339 0.9825
-0.7983 3.8385 -2.0339 0.9825
-1.7633 3.5017 -2.0339 0.9825
-2.0614 3.3349 -2.0339 0.9825
-2.3438 3.1429 -2.0339 0.9825
-2.8533 2.6888 -2.0339 0.9825
1.7545 3.2729 -2.0340 0.9832
1.4630 3.4132 -2.0340 0.9832
1.1604 3.5276 -2.0339 0.9832
0.5311 3.6754 -2.0339 0.9832
0.2093 3.7077 -2.0339 0.9832
-0.1143 3.7118 -2.0339 0.9832
-0.4369 3.6878 -2.0339 0.9832
-1.0698 3.5561 -2.0339 0.9832
-1.3752 3.4495 -2.0339 0.9832
-1.6702 3.3167 -2.0339 0.9832
-1.9525 3.1588 -2.0339 0.9832
-2.2200 2.9768 -2.0339 0.9832
-2.4707 2.7724 -2.0339 0.9832
2.4104 2.5692 -2.0339 0.9839
1.9284 2.9482 -2.0340 0.9839
1.1008 3.3465 -2.0339 0.9839
0.8054 3.4296 -2.0339 0.9839
0.5039 3.4867 -2.0339 0.9839
-0.1084 3.5212 -2.0339 0.9839
-0.4145 3.4984 -2.0339 0.9839
-1.0148 3.3735 -2.0339 0.9839
-1.5844 3.1464 -2.0339 0.9839
-1.8523 2.9966 -2.0339 0.9839
