ply
format ascii 1.0
element vertex 263
property float32 x
property float32 y
property float32 z
property float32 I
end_header
2.1715 17.6146 2.7189 0.9307
4.0623 18.9588 2.5249 0.9248
-10.9934 13.7874 2.2963 0.9313
-11.3890 11.9458 1.7723 0.9358
2.3234 18.8472 1.6075 0.9266
-11.6939 12.2656 1.4346 0.9342
2.2023 17.8655 1.1162 0.9304
-11.9013 12.4831 1.0695 0.9332
3.8731 18.0764 0.7290 0.9287
3.8630 18.0290 0.3115 0.9289
3.8682 18.0529 -0.1039 0.9288
2.3109 18.7458 -0.1063 0.9272
2.4315 19.7242 -0.5596 0.9236
-1.7789 7.5623 -0.5696 0.9693
-1.7405 7.3992 -0.7297 0.9699
13.6079 10.3956 -2.0341 0.9333
12.6368 11.5566 -2.0341 0.9333
7.8520 15.2181 -2.0341 0.9333
5.0523 16.3620 -2.0341 0.9333
3.5877 16.7442 -2.0341 0.9333
-0.9274 17.0988 -2.0341 0.9333
-5.3774 16.2573 -2.0340 0.9333
-6.7920 15.7188 -2.0340 0.9334
-11.8153 12.3929 -2.0339 0.9334
-14.6505 8.8617 -2.0339 0.9334
-15.3757 7.5333 -2.0339 0.9334
10.5940 9.6884 -2.0341 0.9437
9.6970 10.5861 -2.0341 0.9437
4.2356 13.7169 -2.0341 0.9437
3.0077 14.0373 -2.0341 0.9437
-0.7775 14.3346 -2.0341 0.9437
-1.0583 7.3708 -1.0551 0.9704
-1.7168 7.2987 -1.0624 0.9702
-4.5081 13.6292 -2.0340 0.9437
-5.6940 13.1778 -2.0340 0.9437
-10.7841 9.4743 -2.0339 0.9437
-11.5785 8.4849 -2.0339 0.9437
-12.2824 7.4293 -2.0339 0.9437
5.6615 10.9727 -2.0341 0.9512
4.6705 11.4298 -2.0341 0.9512
2.5869 12.0731 -2.0341 0.9512
1.5107 12.2543 -2.0341 0.9512
-0.4242 7.8204 -1.2902 0.9687
-1.6752 7.1217 -1.2052 0.9708
-2.5507 7.7114 -1.3381 0.9676
-4.8973 11.3339 -2.0340 0.9512
-7.6971 9.6534 -2.0339 0.9512
-8.5195 8.9359 -2.0339 0.9512
-9.2752 8.1487 -2.0339 0.9512
-9.9585 7.2977 -2.0339 0.9512
-10.5639 6.3898 -2.0339 0.9512
-11.0868 5.4320 -2.0339 0.9512
8.5994 6.5694 -2.0340 0.9569
7.3096 7.9798 -2.0341 0.9569
5.7918 9.1413 -2.0341 0.9569
4.0934 10.0176 -2.0340 0.9569
2.2673 10.5814 -2.0340 0.9569
1.3240 10.7403 -2.0340 0.9569
-0.4112 7.5805 -1.4269 0.9696
-1.0321 7.1882 -1.3650 0.9709
-1.6749 7.1202 -1.3749 0.9707
-2.3816 7.2000 -1.4254 0.9696
-4.2922 9.9336 -2.0340 0.9569
-5.9727 9.0235 -2.0340 0.9569
-6.7462 8.4607 -2.0339 0.9569
-7.4669 7.8319 -2.0339 0.9569
-8.1293 7.1419 -2.0339 0.9569
7.6466 5.8415 -2.0340 0.9614
7.1009 6.4940 -2.0340 0.9614
6.4997 7.0957 -2.0340 0.9614
5.8478 7.6419 -2.0340 0.9614
3.6398 8.9077 -2.0340 0.9614
-0.4120 7.5959 -1.6080 0.9694
-1.0411 7.2515 -1.5485 0.9705
-1.6991 7.2234 -1.5685 0.9701
-2.3278 7.0375 -1.5669 0.9701
-4.5818 8.4614 -2.0340 0.9614
-6.6396 6.9642 -2.0339 0.9614
-7.7611 5.6875 -2.0339 0.9614
-8.6405 4.2334 -2.0339 0.9614
5.8459 6.3818 -2.0340 0.9651
5.2595 6.8731 -2.0340 0.9651
4.6320 7.3107 -2.0340 0.9651
3.9683 7.6911 -2.0340 0.9651
2.5534 8.2693 -2.0340 0.9651
1.8132 8.4624 -2.0340 0.9651
0.2962 8.6494 -2.0340 0.9651
-4.1208 7.6102 -2.0340 0.9651
-4.7767 7.2165 -2.0339 0.9651
-6.5014 5.7118 -2.0339 0.9651
-7.4047 4.4789 -2.0339 0.9651
6.2427 4.7690 -2.0340 0.9681
5.3063 5.7928 -2.0340 0.9681
3.6021 6.9813 -2.0340 0.9681
1.6459 7.6814 -2.0340 0.9681
-1.1164 7.7759 -2.0340 0.9681
-1.7987 7.6470 -2.0340 0.9681
-2.4670 7.4582 -2.0340 0.9681
-3.7405 6.9079 -2.0339 0.9681
-4.8973 6.1420 -2.0339 0.9681
-5.4205 5.6855 -2.0339 0.9681
-6.3361 4.6433 -2.0339 0.9681
5.7095 4.3617 -2.0340 0.9706
5.3021 4.8488 -2.0340 0.9706
3.8454 6.0693 -2.0340 0.9706
3.2945 6.3851 -2.0340 0.9706
0.8791 7.1309 -2.0340 0.9706
-1.0211 7.1119 -2.0340 0.9706
-2.2563 6.8213 -2.0340 0.9706
-4.4791 5.6175 -2.0339 0.9706
-4.9577 5.2000 -2.0339 0.9706
-5.3975 4.7419 -2.0339 0.9706
-5.7951 4.2467 -2.0339 0.9706
-6.4517 3.1610 -2.0339 0.9706
5.2550 4.0145 -2.0340 0.9727
4.8800 4.4628 -2.0340 0.9727
4.0187 5.2517 -2.0340 0.9727
3.5393 5.5861 -2.0340 0.9727
2.5014 6.1216 -2.0340 0.9727
1.9511 6.3185 -2.0340 0.9727
0.2263 6.6090 -2.0340 0.9727
-0.3581 6.6031 -2.0340 0.9727
-0.9398 6.5457 -2.0340 0.9727
-1.5142 6.4371 -2.0340 0.9727
-3.1487 5.8150 -2.0339 0.9727
-3.6499 5.5142 -2.0339 0.9727
-4.9678 4.3644 -2.0339 0.9727
4.5154 4.1295 -2.0340 0.9745
4.1332 4.5121 -2.0340 0.9745
2.8057 5.4378 -2.0340 0.9745
2.3146 5.6643 -2.0340 0.9745
1.8053 5.8466 -2.0340 0.9745
1.2820 5.9831 -2.0340 0.9745
0.7487 6.0730 -2.0340 0.9745
-0.3314 6.1099 -2.0340 0.9745
-0.8696 6.0568 -2.0340 0.9745
-1.4011 5.9563 -2.0340 0.9745
-1.9216 5.8093 -2.0339 0.9745
-2.4270 5.6169 -2.0339 0.9745
-4.2222 4.4286 -2.0339 0.9745
-4.9354 3.6167 -2.0339 0.9745
-5.2354 3.1668 -2.0339 0.9745
-5.4946 2.6921 -2.0339 0.9745
3.8419 4.1941 -2.0340 0.9761
3.0441 4.8045 -2.0340 0.9761
1.6781 5.4345 -2.0340 0.9761
1.1917 5.5615 -2.0340 0.9761
-0.3080 5.6793 -2.0340 0.9761
-1.3023 5.5366 -2.0340 0.9761
-1.7861 5.3999 -2.0339 0.9761
-3.1393 4.7428 -2.0339 0.9761
-3.9246 4.1165 -2.0339 0.9761
-4.2728 3.7538 -2.0339 0.9761
-4.5876 3.3619 -2.0339 0.9761
-4.8665 2.9436 -2.0339 0.9761
-5.1074 2.5023 -2.0339 0.9761
3.5851 3.9138 -2.0340 0.9775
3.2255 4.2151 -2.0340 0.9775
2.4337 4.7168 -2.0340 0.9775
2.0077 4.9133 -2.0340 0.9775
1.1120 5.1898 -2.0340 0.9775
0.6494 5.2677 -2.0340 0.9775
0.1816 5.3045 -2.0340 0.9775
-0.7543 5.2537 -2.0340 0.9775
-1.2153 5.1665 -2.0339 0.9775
-2.5272 4.6672 -2.0339 0.9775
-3.6623 3.8414 -2.0339 0.9775
-3.9872 3.5029 -2.0339 0.9775
-4.7661 2.3351 -2.0339 0.9775
3.3568 3.6646 -2.0340 0.9787
3.0201 3.9467 -2.0340 0.9787
2.6598 4.1980 -2.0340 0.9787
2.2787 4.4165 -2.0340 0.9787
1.4662 4.7484 -2.0340 0.9787
1.0412 4.8594 -2.0340 0.9787
0.6080 4.9323 -2.0340 0.9787
-0.7063 4.9192 -2.0339 0.9788
-2.3663 4.3700 -2.0339 0.9788
-3.4292 3.5968 -2.0339 0.9788
-3.7334 3.2799 -2.0339 0.9788
-4.2521 2.5720 -2.0339 0.9788
3.7086 2.8332 -2.0340 0.9798
3.4439 3.1496 -2.0340 0.9798
2.8362 3.7064 -2.0340 0.9798
2.4979 3.9423 -2.0340 0.9798
1.3770 4.4592 -2.0340 0.9798
0.5710 4.6319 -2.0340 0.9798
-0.2527 4.6601 -2.0340 0.9798
-1.4656 4.4308 -2.0339 0.9798
-2.2222 4.1039 -2.0339 0.9798
-2.5759 3.8916 -2.0339 0.9798
-2.9095 3.6490 -2.0339 0.9798
-3.7643 2.7586 -2.0339 0.9798
-3.9932 2.4154 -2.0339 0.9798
-4.1909 2.0533 -2.0339 0.9798
3.2426 2.9654 -2.0340 0.9808
2.9681 3.2402 -2.0340 0.9808
2.6704 3.4896 -2.0340 0.9808
0.5377 4.3611 -2.0340 0.9808
-0.6245 4.3494 -2.0339 0.9808
-1.0061 4.2773 -2.0339 0.9808
-1.7429 4.0336 -2.0339 0.9808
-2.4254 3.6640 -2.0339 0.9808
-3.3010 2.9001 -2.0339 0.9808
-3.5442 2.5972 -2.0339 0.9808
3.2950 2.5172 -2.0340 0.9817
2.2193 3.5026 -2.0340 0.9817
1.9013 3.6849 -2.0340 0.9817
1.5685 3.8384 -2.0340 0.9817
0.8687 4.0545 -2.0340 0.9817
-0.2245 4.1404 -2.0339 0.9817
-0.5893 4.1044 -2.0339 0.9817
-0.9494 4.0363 -2.0339 0.9817
-1.3021 3.9367 -2.0339 0.9817
-1.9744 3.6462 -2.0339 0.9817
-2.2886 3.4576 -2.0339 0.9817
-2.5850 3.2420 -2.0339 0.9817
-3.3445 2.4509 -2.0339 0.9817
3.1155 2.3801 -2.0340 0.9825
2.8932 2.6459 -2.0340 0.9825
2.3827 3.1136 -2.0340 0.9825
2.0984 3.3119 -2.0340 0.9825
0.8214 3.8336 -2.0340 0.9825
0.1342 3.9183 -2.0339 0.9825
-0.5572 3.8808 -2.0339 0.9825
-1.2312 3.7222 -2.0339 0.9825
-2.1639 3.2693 -2.0339 0.9825
-2.4442 3.0654 -2.0339 0.9825
-2.7054 2.8376 -2.0339 0.9825
-2.9454 2.5876 -2.0339 0.9825
-3.3546 2.0291 -2.0339 0.9825
-3.5207 1.7249 -2.0339 0.9825
2.9511 2.2544 -2.0340 0.9832
2.5084 2.7384 -2.0340 0.9832
2.2568 2.9492 -2.0340 0.9832
1.4047 3.4377 -2.0340 0.9832
0.4543 3.6857 -2.0339 0.9832
0.1271 3.7114 -2.0339 0.9832
-0.2011 3.7081 -2.0339 0.9832
-0.8503 3.6149 -2.0339 0.9832
-1.1662 3.5257 -2.0339 0.9832
-1.7682 3.2655 -2.0339 0.9832
-2.0497 3.0966 -2.0339 0.9832
-2.3151 2.9035 -2.0339 0.9832
-2.5625 2.6877 -2.0339 0.9832
-2.9953 2.1951 -2.0339 0.9832
-0.9856 0.4829 -0.6011 0.9950
2.7995 2.1386 -2.0339 0.9839
2.5997 2.3775 -2.0339 0.9839
2.3796 2.5978 -2.0340 0.9839
2.1409 2.7978 -2.0340 0.9839
1.6154 3.1307 -2.0339 0.9839
1.0394 3.3661 -2.0339 0.9839
0.7381 3.4447 -2.0339 0.9839
-0.1908 3.5177 -2.0339 0.9839
-0.5007 3.4871 -2.0339 0.9839
-0.8066 3.4293 -2.0339 0.9839
-1.1063 3.3446 -2.0339 0.9839
-1.3973 3.2339 -2.0339 0.9839
-2.4309 2.5497 -2.0339 0.9839
-2.6465 2.3251 -2.0339 0.9839
-2.8415 2.0823 -2.0339 0.9839
-0.9152 0.4484 -0.5884 0.9953
