ply
format ascii 1.0
element vertex 65
property float32 x
property float32 y
property float32 z
property float32 I
end_header
-16.8201 -3.1918 -2.0337 0.9334
-16.4473 -4.7526 -2.0336 0.9334
-15.2727 -7.7355 -2.0336 0.9334
-14.3534 -0.0000 -2.0337 0.9437
-14.2902 -1.3439 -2.0337 0.9437
-14.1015 -2.6759 -2.0337 0.9437
-13.7889 -3.9845 -2.0337 0.9437
-12.3452 0.0000 -2.0337 0.9512
-12.2909 -1.1558 -2.0337 0.9512
-12.1286 -2.3016 -2.0337 0.9512
-10.6303 -2.0172 -2.0337 0.9569
-10.3947 -3.0037 -2.0337 0.9569
-9.5791 -0.9008 -2.0338 0.9614
-9.4526 -1.7937 -2.0338 0.9614
-8.9524 -3.5246 -2.0337 0.9614
-8.5830 -4.3472 -2.0337 0.9614
-8.6536 0.0000 -2.0338 0.9651
-8.6155 -0.8102 -2.0338 0.9651
-7.7196 -3.9099 -2.0337 0.9651
-7.8204 -0.7354 -2.0338 0.9681
-7.5461 -2.1805 -2.0338 0.9681
-7.0073 -3.5491 -2.0338 0.9681
-6.9018 -1.9943 -2.0338 0.9706
-6.4089 -3.2461 -2.0338 0.9706
-6.6123 0.0000 -2.0338 0.9727
-6.5832 -0.6191 -2.0338 0.9727
-6.4963 -1.2328 -2.0338 0.9727
-6.1525 -2.4223 -2.0338 0.9727
-5.8987 -2.9877 -2.0338 0.9727
-6.1184 -0.0000 -2.0338 0.9745
-6.0111 -1.1407 -2.0338 0.9745
-5.8779 -1.6985 -2.0338 0.9745
-5.6930 -2.2414 -2.0338 0.9745
-5.4582 -2.7646 -2.0338 0.9745
-5.6873 -0.0000 -2.0338 0.9761
-5.6623 -0.5325 -2.0338 0.9761
-5.5875 -1.0603 -2.0338 0.9761
-5.0736 -2.5698 -2.0338 0.9761
-5.3072 -0.0000 -2.0338 0.9775
-5.2141 -0.9895 -2.0338 0.9775
-5.0986 -1.4733 -2.0338 0.9775
-4.9382 -1.9442 -2.0338 0.9775
-4.7345 -2.3980 -2.0338 0.9775
-2.1210 -0.0000 -0.8681 0.9909
-2.1209 -0.4025 -0.8835 0.9907
-4.7740 -1.3795 -2.0338 0.9788
-4.4331 -2.2454 -2.0338 0.9788
-1.9051 -0.3615 -0.8451 0.9916
-4.3423 -1.7096 -2.0338 0.9798
-1.6058 -0.1511 -0.7466 0.9929
-1.5472 -0.4471 -0.7455 0.9929
-4.0883 -1.6096 -2.0338 0.9808
-1.3343 -0.0000 -0.6545 0.9941
-1.3372 -0.2538 -0.6676 0.9940
-1.2536 -0.4936 -0.6609 0.9940
-3.6988 -1.8735 -2.0338 0.9817
-1.2004 -0.1129 -0.6255 0.9946
-1.1837 -0.2246 -0.6250 0.9946
-1.0757 -0.0000 -0.5892 0.9951
-1.0798 -0.1016 -0.5940 0.9951
-1.0373 -0.2998 -0.5914 0.9951
-0.9807 -0.4968 -0.6021 0.9950
-0.9768 -0.1854 -0.5740 0.9954
-0.9576 -0.2767 -0.5755 0.9954
-0.9396 -0.3699 -0.5830 0.9953
