ply
format ascii 1.0
element vertex 235
property float32 x
property float32 y
property float32 z
property float32 I
end_header
2.5447 -6.1208 -0.6364 0.9737
-10.6224 -13.4255 -2.0336 0.9334
-9.3927 -14.3130 -2.0336 0.9334
-8.0891 -15.0880 -2.0336 0.9334
-6.7221 -15.7447 -2.0336 0.9334
-5.3024 -16.2779 -2.0336 0.9334
-3.8411 -16.6834 -2.0336 0.9334
-2.3496 -16.9579 -2.0336 0.9334
3.6822 -16.7196 -2.0336 0.9334
12.7155 -11.4650 -2.0337 0.9334
14.5379 -9.0438 -2.0338 0.9334
15.2813 -7.7218 -2.0338 0.9334
15.9048 -6.3392 -2.0338 0.9334
-7.8745 -11.9995 -2.0336 0.9437
-6.7816 -12.6493 -2.0336 0.9437
-5.6356 -13.1998 -2.0336 0.9437
-4.4454 -13.6468 -2.0336 0.9437
2.4979 -6.0083 -0.9219 0.9741
7.7604 -12.0745 -2.0337 0.9437
11.4690 -8.6307 -2.0338 0.9437
-6.7728 -10.3207 -2.0336 0.9512
-1.6942 -12.2278 -2.0336 0.9512
-0.6054 -12.3298 -2.0336 0.9512
0.4881 -12.3350 -2.0337 0.9512
1.5778 -12.2435 -2.0337 0.9512
2.6551 -12.0559 -2.0337 0.9512
3.0622 -5.8446 -1.0870 0.9736
9.1686 -8.2669 -2.0337 0.9512
10.4825 -6.5211 -2.0338 0.9512
11.4682 -4.5709 -2.0338 0.9512
-6.7133 -8.4848 -2.0336 0.9569
-5.9361 -9.0457 -2.0336 0.9569
-4.2483 -9.9505 -2.0336 0.9569
-1.4849 -10.7171 -2.0337 0.9569
0.4278 -10.8111 -2.0337 0.9569
1.4175 -6.4360 -1.2387 0.9735
3.0546 -5.8300 -1.2371 0.9736
5.8500 -9.1021 -2.0337 0.9569
6.6326 -8.5487 -2.0337 0.9569
7.3631 -7.9282 -2.0337 0.9569
8.0359 -7.2455 -2.0337 0.9569
8.6456 -6.5060 -2.0338 0.9569
9.1875 -5.7154 -2.0338 0.9569
9.6573 -4.8799 -2.0338 0.9569
10.0513 -4.0061 -2.0338 0.9569
10.3665 -3.1009 -2.0338 0.9569
-5.9696 -7.5448 -2.0336 0.9614
-4.5459 -8.4791 -2.0337 0.9614
-3.7777 -8.8481 -2.0337 0.9614
-2.1586 -9.3756 -2.0337 0.9614
1.3952 -6.3351 -1.3712 0.9738
2.4291 -5.8430 -1.3376 0.9745
6.5473 -7.0499 -2.0337 0.9614
7.1455 -6.4428 -2.0337 0.9614
7.6877 -5.7852 -2.0338 0.9614
8.1696 -5.0822 -2.0338 0.9614
-4.7475 -7.2344 -2.0337 0.9651
-4.0886 -7.6261 -2.0337 0.9651
-3.3977 -7.9580 -2.0337 0.9651
-1.1876 -8.5712 -2.0337 0.9651
0.3421 -8.6463 -2.0337 0.9651
1.1060 -8.5822 -2.0337 0.9651
1.8311 -5.8083 -1.4313 0.9753
2.3601 -5.6768 -1.4449 0.9751
5.8887 -6.3406 -2.0337 0.9651
6.4267 -5.7947 -2.0337 0.9651
6.9144 -5.2032 -2.0338 0.9651
7.7235 -3.9027 -2.0338 0.9651
8.0386 -3.2039 -2.0338 0.9651
-3.7112 -6.9224 -2.0337 0.9681
-3.0841 -7.2237 -2.0337 0.9681
-1.7623 -7.6543 -2.0337 0.9681
0.3106 -7.8484 -2.0337 0.9681
1.0039 -7.7901 -2.0337 0.9681
1.3533 -6.1447 -1.6291 0.9743
1.8448 -5.8518 -1.5886 0.9750
4.2468 -6.6077 -2.0337 0.9681
4.8149 -6.2059 -2.0337 0.9681
5.3452 -5.7555 -2.0337 0.9681
5.8336 -5.2599 -2.0337 0.9681
6.2762 -4.7230 -2.0338 0.9681
6.6696 -4.1491 -2.0338 0.9681
7.0107 -3.5426 -2.0338 0.9681
7.5255 -2.2511 -2.0338 0.9681
-0.9859 -7.1158 -2.0337 0.9706
-0.3523 -7.1752 -2.0337 0.9706
0.2840 -7.1782 -2.0337 0.9706
0.9182 -7.1249 -2.0337 0.9706
1.4241 -6.4663 -1.8744 0.9728
1.8481 -5.8625 -1.7401 0.9748
2.5470 -6.1263 -1.8782 0.9728
4.4037 -5.6760 -2.0337 0.9706
4.8888 -5.2640 -2.0337 0.9706
5.3355 -4.8107 -2.0337 0.9706
6.1001 -3.7947 -2.0338 0.9706
6.6736 -2.6599 -2.0338 0.9706
6.8828 -2.0588 -2.0338 0.9706
-3.1241 -5.8272 -2.0337 0.9727
-2.0479 -6.2868 -2.0337 0.9727
-0.9074 -6.5494 -2.0337 0.9727
0.2614 -6.6068 -2.0337 0.9727
3.5749 -5.5623 -2.0337 0.9727
4.0531 -5.2241 -2.0337 0.9727
4.9107 -4.4277 -2.0337 0.9727
5.9016 -2.9821 -2.0338 0.9727
6.3348 -1.8950 -2.0338 0.9727
-2.4023 -5.6267 -2.0337 0.9745
-1.8949 -5.8172 -2.0337 0.9745
-1.3727 -5.9621 -2.0337 0.9745
-0.3000 -6.1107 -2.0337 0.9745
0.7820 -6.0680 -2.0337 0.9745
1.8395 -5.8351 -2.0337 0.9745
2.3487 -5.6494 -2.0337 0.9745
4.1635 -4.4831 -2.0337 0.9745
4.8887 -3.6788 -2.0338 0.9745
5.4607 -2.7594 -2.0338 0.9745
5.8617 -1.7534 -2.0338 0.9745
-3.5286 -4.4598 -2.0337 0.9761
-2.6871 -5.0120 -2.0337 0.9761
-0.7805 -5.6331 -2.0337 0.9761
-0.2789 -5.6801 -2.0337 0.9761
0.2249 -5.6825 -2.0337 0.9761
2.1832 -5.2513 -2.0337 0.9761
2.6394 -5.0375 -2.0337 0.9761
3.0748 -4.7841 -2.0337 0.9761
3.4861 -4.4933 -2.0337 0.9761
5.0759 -2.5649 -2.0338 0.9761
5.2830 -2.1056 -2.0338 0.9761
5.4486 -1.6298 -2.0338 0.9761
-2.9116 -4.4368 -2.0337 0.9775
-2.5075 -4.6771 -2.0337 0.9775
-2.0838 -4.8807 -2.0337 0.9775
-1.1907 -5.1716 -2.0337 0.9775
-0.2603 -5.3005 -2.0337 0.9775
0.2098 -5.3027 -2.0337 0.9775
2.4630 -4.7008 -2.0337 0.9775
3.6115 -3.8886 -2.0337 0.9775
4.5062 -2.8032 -2.0338 0.9775
4.7367 -2.3935 -2.0338 0.9775
5.0845 -1.5209 -2.0338 0.9775
-3.0832 -3.8968 -2.0337 0.9788
-2.7262 -4.1543 -2.0337 0.9788
-2.3479 -4.3793 -2.0337 0.9788
-1.1148 -4.8423 -2.0337 0.9788
-0.2437 -4.9631 -2.0337 0.9788
0.1965 -4.9652 -2.0337 0.9788
1.0688 -4.8528 -2.0337 0.9788
1.9076 -4.5883 -2.0337 0.9788
2.3061 -4.4015 -2.0337 0.9788
3.0460 -3.9260 -2.0337 0.9788
3.3815 -3.6411 -2.0337 0.9788
3.6905 -3.3275 -2.0337 0.9788
4.2194 -2.6248 -2.0338 0.9788
4.6161 -1.8398 -2.0338 0.9788
4.7608 -1.4241 -2.0338 0.9788
-2.5602 -3.9014 -2.0337 0.9798
-1.8323 -4.2916 -2.0337 0.9798
-1.4453 -4.4369 -2.0337 0.9798
-0.6404 -4.6223 -2.0337 0.9798
0.1845 -4.6628 -2.0337 0.9798
1.0037 -4.5572 -2.0337 0.9798
1.4030 -4.4505 -2.0337 0.9798
3.1756 -3.4193 -2.0337 0.9798
3.4657 -3.1249 -2.0337 0.9798
3.9624 -2.4649 -2.0338 0.9798
4.4708 -1.3373 -2.0338 0.9798
-2.7261 -3.4455 -2.0337 0.9808
-1.3608 -4.1775 -2.0337 0.9808
-0.6030 -4.3520 -2.0337 0.9808
0.5616 -4.3575 -2.0337 0.9808
1.3210 -4.1903 -2.0337 0.9808
2.6933 -3.4713 -2.0337 0.9808
3.2630 -2.9422 -2.0337 0.9808
3.5107 -2.6418 -2.0337 0.9808
3.7307 -2.3208 -2.0338 0.9808
3.9215 -1.9815 -2.0338 0.9808
4.0814 -1.6267 -2.0338 0.9808
4.2094 -1.2592 -2.0338 0.9808
-1.9590 -3.6539 -2.0337 0.9817
-1.6279 -3.8130 -2.0337 0.9817
-1.2841 -3.9421 -2.0337 0.9817
-0.5690 -4.1068 -2.0337 0.9817
0.5299 -4.1120 -2.0337 0.9817
0.8918 -4.0490 -2.0337 0.9817
1.5916 -3.8284 -2.0337 0.9817
2.5415 -3.2757 -2.0337 0.9817
3.0792 -2.7764 -2.0337 0.9817
3.3128 -2.4930 -2.0337 0.9817
3.5205 -2.1900 -2.0338 0.9817
3.7005 -1.8699 -2.0338 0.9817
3.8514 -1.5351 -2.0338 0.9817
3.9722 -1.1882 -2.0338 0.9817
-2.4324 -3.0743 -2.0337 0.9825
-2.1508 -3.2775 -2.0337 0.9825
-1.8523 -3.4549 -2.0337 0.9825
-1.5393 -3.6053 -2.0337 0.9825
-0.5380 -3.8831 -2.0337 0.9825
-0.1923 -3.9154 -2.0337 0.9825
0.1550 -3.9171 -2.0337 0.9825
1.1787 -3.7388 -2.0337 0.9825
1.5049 -3.6199 -2.0337 0.9825
2.4030 -3.0973 -2.0337 0.9825
2.6677 -2.8725 -2.0337 0.9825
2.9115 -2.6251 -2.0337 0.9825
3.1324 -2.3572 -2.0337 0.9825
3.6416 -1.4514 -2.0338 0.9825
-2.0372 -3.1044 -2.0337 0.9832
-1.7545 -3.2725 -2.0337 0.9832
-0.8331 -3.6185 -2.0337 0.9832
-0.5096 -3.6780 -2.0337 0.9832
-0.1821 -3.7087 -2.0337 0.9832
0.4746 -3.6827 -2.0337 0.9832
0.7987 -3.6263 -2.0337 0.9832
1.7233 -3.2891 -2.0337 0.9832
2.0076 -3.1237 -2.0337 0.9832
2.2762 -2.9338 -2.0337 0.9832
2.5269 -2.7208 -2.0337 0.9832
2.7578 -2.4865 -2.0337 0.9832
2.9670 -2.2327 -2.0337 0.9832
3.1530 -1.9614 -2.0338 0.9832
1.8743 -0.5606 -1.0715 0.9911
-2.1856 -2.7624 -2.0337 0.9839
-1.3831 -3.2396 -2.0337 0.9839
-1.0910 -3.3493 -2.0337 0.9839
-0.7903 -3.4327 -2.0337 0.9839
-0.4834 -3.4891 -2.0337 0.9839
-0.1727 -3.5183 -2.0337 0.9839
0.4502 -3.4936 -2.0337 0.9839
0.7577 -3.4401 -2.0337 0.9839
1.6348 -3.1202 -2.0337 0.9839
1.9046 -2.9633 -2.0337 0.9839
2.3971 -2.5811 -2.0337 0.9839
2.6162 -2.3588 -2.0337 0.9839
2.9910 -1.8607 -2.0338 0.9839
3.1440 -1.5887 -2.0338 0.9839
