ply
format ascii 1.0
element vertex 196
property float32 x
property float32 y
property float32 z
property float32 I
end_header
2.3793 18.6731 3.3192 0.9264
2.2244 17.4575 2.6960 0.9313
4.1631 18.9959 2.5324 0.9246
2.2526 17.6798 2.3209 0.9306
2.3134 18.1567 0.3092 0.9294
2.3813 18.6899 -0.1061 0.9274
14.7735 9.1375 -0.8810 0.9328
14.4203 8.9190 -1.2432 0.9343
-1.7664 7.5666 -0.5697 0.9693
-1.1232 7.9517 -0.7710 0.9682
12.7384 11.4446 -2.0341 0.9333
6.5702 15.8138 -2.0341 0.9333
5.1384 16.3352 -2.0341 0.9333
0.6457 17.1119 -2.0341 0.9333
-0.8781 17.1014 -2.0341 0.9333
-1.7160 7.3509 -0.8967 0.9701
-6.7840 15.7222 -2.0340 0.9334
-9.4609 14.2720 -2.0340 0.9334
12.2093 7.5516 -2.0341 0.9437
11.4897 8.6070 -2.0341 0.9437
8.8113 11.3339 -2.0341 0.9437
5.5081 13.2573 -2.0341 0.9437
4.3077 13.6944 -2.0341 0.9437
3.0733 14.0232 -2.0341 0.9437
1.8145 14.2408 -2.0341 0.9437
0.5414 14.3456 -2.0341 0.9437
-0.7361 14.3368 -2.0341 0.9437
-1.0450 7.3989 -1.0588 0.9703
-1.7026 7.2934 -1.0612 0.9702
-5.6873 13.1806 -2.0340 0.9437
10.5009 6.4948 -2.0341 0.9512
7.5783 9.7480 -2.0341 0.9512
6.6818 10.3831 -2.0341 0.9512
5.7323 10.9360 -2.0341 0.9512
4.7373 11.4022 -2.0341 0.9512
3.7050 11.7782 -2.0341 0.9512
1.5605 12.2481 -2.0341 0.9512
-0.4096 7.9774 -1.3159 0.9681
-1.0273 7.2728 -1.2100 0.9707
-2.5462 7.7260 -1.3401 0.9676
-4.8916 11.3363 -2.0340 0.9512
6.6420 8.5436 -2.0341 0.9569
5.8562 9.1002 -2.0341 0.9569
5.0240 9.5848 -2.0341 0.9569
2.3167 10.5707 -2.0340 0.9569
1.3678 10.7348 -2.0340 0.9569
-1.6647 7.1312 -1.3764 0.9706
-2.3731 7.2010 -1.4251 0.9696
7.7014 5.7692 -2.0340 0.9614
4.4673 8.5228 -2.0340 0.9614
-0.3903 7.6012 -1.6089 0.9694
-4.5825 8.4610 -2.0340 0.9614
7.3604 4.5525 -2.0340 0.9651
6.4379 5.7840 -2.0340 0.9651
5.3118 6.8327 -2.0340 0.9651
-0.4438 8.6430 -2.0340 0.9651
-1.6972 7.2704 -1.7547 0.9698
-2.4445 7.4178 -1.8356 0.9684
-4.1215 7.6098 -2.0340 0.9651
6.6811 4.1323 -2.0340 0.9681
6.2873 4.7099 -2.0340 0.9681
5.3539 5.7489 -2.0340 0.9681
4.2512 6.6061 -2.0340 0.9681
3.6471 6.9579 -2.0340 0.9681
3.0141 7.2546 -2.0340 0.9681
1.6817 7.6736 -2.0340 0.9681
0.2962 7.8501 -2.0340 0.9681
-1.0987 7.7785 -2.0340 0.9681
-2.4588 7.4609 -2.0340 0.9681
-3.7411 6.9075 -2.0339 0.9681
-4.3404 6.5476 -2.0339 0.9681
6.1106 3.7794 -2.0340 0.9706
4.4098 5.6724 -2.0340 0.9706
0.9081 7.1272 -2.0340 0.9706
0.2709 7.1797 -2.0340 0.9706
-1.0048 7.1142 -2.0340 0.9706
-3.4217 6.3176 -2.0339 0.9706
5.2926 3.9647 -2.0340 0.9727
4.0587 5.2208 -2.0340 0.9727
3.0701 5.8571 -2.0340 0.9727
2.5372 6.1068 -2.0340 0.9727
1.4156 6.4596 -2.0340 0.9727
0.8358 6.5598 -2.0340 0.9727
0.2494 6.6082 -2.0340 0.9727
-0.9248 6.5478 -2.0340 0.9727
-2.0698 6.2805 -2.0340 0.9727
-2.6199 6.0716 -2.0339 0.9727
-3.1493 5.8147 -2.0339 0.9727
5.2040 3.2187 -2.0340 0.9745
4.1702 4.4779 -2.0340 0.9745
3.7556 4.8309 -2.0340 0.9745
3.3113 5.1456 -2.0340 0.9745
2.8408 5.4196 -2.0340 0.9745
2.3477 5.6507 -2.0340 0.9745
1.8361 5.8370 -2.0340 0.9745
0.2307 6.1146 -2.0340 0.9745
-0.3138 6.1109 -2.0340 0.9745
-1.3910 5.9587 -2.0340 0.9745
-1.9152 5.8114 -2.0339 0.9745
4.8372 2.9918 -2.0340 0.9761
3.8764 4.1623 -2.0340 0.9761
1.7067 5.4256 -2.0340 0.9761
1.2176 5.5558 -2.0340 0.9761
0.7189 5.6421 -2.0340 0.9761
0.2145 5.6837 -2.0340 0.9761
-0.2916 5.6802 -2.0340 0.9761
-0.7955 5.6318 -2.0340 0.9761
-2.7087 5.0012 -2.0339 0.9761
4.2479 3.1821 -2.0340 0.9775
3.6172 3.8841 -2.0340 0.9775
2.8722 4.4633 -2.0340 0.9775
2.4640 4.7010 -2.0340 0.9775
2.0364 4.9014 -2.0340 0.9775
0.6708 5.2650 -2.0340 0.9775
0.2002 5.3038 -2.0340 0.9775
-1.6612 5.0408 -2.0339 0.9775
-2.1027 4.8732 -2.0339 0.9775
4.2266 2.6142 -2.0340 0.9787
3.9775 2.9795 -2.0340 0.9787
3.3869 3.6368 -2.0340 0.9787
3.0502 3.9235 -2.0340 0.9787
2.6893 4.1791 -2.0340 0.9787
1.9068 4.5894 -2.0340 0.9787
1.0639 4.8545 -2.0340 0.9787
-0.2548 4.9631 -2.0340 0.9787
-1.1297 4.8395 -2.0339 0.9788
-1.5555 4.7199 -2.0339 0.9788
-1.9689 4.5629 -2.0339 0.9788
-2.7458 4.1421 -2.0339 0.9788
3.4717 3.1191 -2.0340 0.9798
2.1667 4.1336 -2.0340 0.9798
1.7906 4.3098 -2.0340 0.9798
0.5899 4.6296 -2.0340 0.9798
0.1760 4.6637 -2.0340 0.9798
-0.6527 4.6211 -2.0339 0.9798
-1.8490 4.2850 -2.0339 0.9798
-2.2226 4.1037 -2.0339 0.9798
3.7371 2.3114 -2.0340 0.9808
3.5168 2.6345 -2.0340 0.9808
3.2686 2.9366 -2.0340 0.9808
2.3779 3.6951 -2.0340 0.9808
2.0400 3.8919 -2.0340 0.9808
1.6859 4.0578 -2.0340 0.9808
0.9407 4.2922 -2.0340 0.9808
0.5554 4.3588 -2.0340 0.9808
-0.2253 4.3883 -2.0339 0.9808
-0.6145 4.3509 -2.0339 0.9808
-1.3753 4.1732 -2.0339 0.9808
2.8259 3.0344 -2.0340 0.9817
2.5450 3.2736 -2.0340 0.9817
1.9250 3.6726 -2.0340 0.9817
1.5909 3.8292 -2.0340 0.9817
1.2442 3.9554 -2.0340 0.9817
0.5241 4.1133 -2.0340 0.9817
0.1564 4.1435 -2.0339 0.9817
-0.2126 4.1410 -2.0339 0.9817
-0.5799 4.1057 -2.0339 0.9817
-1.6427 3.8071 -2.0339 0.9817
3.3344 2.0623 -2.0340 0.9825
3.1379 2.3506 -2.0340 0.9825
2.9165 2.6202 -2.0340 0.9825
2.6720 2.8691 -2.0340 0.9825
2.4064 3.0953 -2.0340 0.9825
2.1217 3.2970 -2.0340 0.9825
1.8202 3.4725 -2.0340 0.9825
0.1479 3.9179 -2.0339 0.9825
-0.8912 3.8179 -2.0339 0.9825
-1.5533 3.5997 -2.0339 0.9825
-1.8671 3.4474 -2.0339 0.9825
3.1583 1.9534 -2.0339 0.9832
2.7624 2.4818 -2.0340 0.9832
2.2793 2.9318 -2.0340 0.9832
2.0096 3.1229 -2.0340 0.9832
1.1143 3.5425 -2.0339 0.9832
0.7950 3.6275 -2.0339 0.9832
0.4694 3.6838 -2.0339 0.9832
0.1400 3.7109 -2.0339 0.9832
-0.1904 3.7087 -2.0339 0.9832
-0.5194 3.6770 -2.0339 0.9832
-0.8442 3.6163 -2.0339 0.9832
-1.1623 3.5270 -2.0339 0.9832
-1.7685 3.2654 -2.0339 0.9832
2.8196 2.1121 -2.0339 0.9839
2.4009 2.5780 -2.0339 0.9839
1.9064 2.9625 -2.0340 0.9839
1.6355 3.1202 -2.0339 0.9839
1.3517 3.2533 -2.0339 0.9839
1.0571 3.3606 -2.0339 0.9839
0.7541 3.4412 -2.0339 0.9839
0.4453 3.4946 -2.0339 0.9839
-0.1807 3.5182 -2.0339 0.9839
-0.4927 3.4883 -2.0339 0.9839
-0.8008 3.4306 -2.0339 0.9839
-1.1026 3.3458 -2.0339 0.9839
-1.3957 3.2346 -2.0339 0.9839
-1.9464 2.9362 -2.0339 0.9839
