ply
format ascii 1.0
element vertex 192
property float32 x
property float32 y
property float32 z
property float32 I
end_header
-6.5682 -15.8104 -2.0337 0.9334
-5.1674 -16.3220 -2.0337 0.9334
-3.7275 -16.7098 -2.0337 0.9334
2.2032 -16.9784 -2.0337 0.9334
3.6725 -16.7223 -2.0337 0.9334
1.9462 -6.2186 -0.7740 0.9741
2.4888 -6.0470 -0.7768 0.9740
3.0955 -5.9812 -0.8000 0.9732
9.1627 -14.4630 -2.0337 0.9334
10.3866 -13.6109 -2.0338 0.9334
12.5893 -11.6040 -2.0338 0.9334
-8.7448 -11.3816 -2.0337 0.9437
-6.6391 -12.7253 -2.0337 0.9437
-5.5065 -13.2548 -2.0337 0.9437
-4.3321 -13.6838 -2.0337 0.9437
0.6015 -14.3407 -2.0337 0.9437
1.9213 -6.1390 -0.9114 0.9743
7.6816 -12.1252 -2.0338 0.9437
9.6676 -10.6098 -2.0338 0.9437
11.3608 -8.7730 -2.0338 0.9437
-7.5214 -9.7891 -2.0337 0.9512
-6.6409 -10.4065 -2.0337 0.9512
-4.7361 -11.4003 -2.0337 0.9512
-1.6290 -12.2370 -2.0337 0.9512
-0.5580 -12.3324 -2.0337 0.9512
2.3900 -5.8070 -1.0345 0.9749
3.0372 -5.8685 -1.0886 0.9736
6.6068 -10.4286 -2.0338 0.9512
7.4893 -9.8142 -2.0338 0.9512
8.3150 -9.1253 -2.0338 0.9512
9.0775 -8.3671 -2.0338 0.9512
-5.0047 -9.5928 -2.0337 0.9569
-3.2657 -10.3152 -2.0337 0.9569
-1.4278 -10.7253 -2.0337 0.9569
0.4534 -10.8104 -2.0337 0.9569
1.3925 -10.7300 -2.0337 0.9569
1.4137 -6.4374 -1.2388 0.9735
1.8463 -5.8992 -1.1618 0.9752
2.3878 -5.8015 -1.1792 0.9748
3.0216 -5.8384 -1.2356 0.9736
5.7906 -9.1403 -2.0338 0.9569
6.5640 -8.6017 -2.0338 0.9569
7.2877 -7.9979 -2.0338 0.9569
8.5641 -6.6132 -2.0338 0.9569
-4.4503 -8.5300 -2.0337 0.9614
-3.6911 -8.8849 -2.0337 0.9614
-1.2696 -9.5370 -2.0337 0.9614
0.4032 -9.6128 -2.0337 0.9614
1.2382 -9.5412 -2.0337 0.9614
2.9137 -5.6301 -1.3400 0.9744
6.4803 -7.1118 -2.0338 0.9614
-5.2721 -6.8618 -2.0337 0.9651
-2.6118 -8.2497 -2.0337 0.9651
-1.8840 -8.4457 -2.0337 0.9651
-1.1419 -8.5776 -2.0337 0.9651
1.1136 -8.5814 -2.0337 0.9651
2.3337 -5.6702 -1.4411 0.9751
2.9460 -5.6924 -1.5064 0.9740
-4.7856 -6.2285 -2.0337 0.9681
-3.6332 -6.9639 -2.0337 0.9681
-3.0134 -7.2537 -2.0337 0.9681
-2.3707 -7.4884 -2.0337 0.9681
-1.7101 -7.6663 -2.0337 0.9681
-1.0365 -7.7860 -2.0337 0.9681
-0.3550 -7.8467 -2.0337 0.9681
1.0108 -7.7895 -2.0337 0.9681
2.4597 -5.9763 -1.6733 0.9737
5.2905 -5.8061 -2.0338 0.9681
5.7757 -5.3236 -2.0338 0.9681
-3.3229 -6.3692 -2.0337 0.9706
-2.7561 -6.6342 -2.0337 0.9706
-2.1683 -6.8489 -2.0337 0.9706
-1.5641 -7.0116 -2.0337 0.9706
-0.3247 -7.1766 -2.0337 0.9706
0.3011 -7.1777 -2.0337 0.9706
0.9245 -7.1243 -2.0337 0.9706
1.4214 -6.4721 -1.8759 0.9728
3.0693 -5.9307 -1.8905 0.9726
5.2825 -4.8690 -2.0338 0.9706
5.6862 -4.3909 -2.0338 0.9706
-3.5570 -5.5738 -2.0337 0.9727
-3.0585 -5.8622 -2.0337 0.9727
-0.8725 -6.5543 -2.0337 0.9727
-0.2989 -6.6054 -2.0337 0.9727
0.2771 -6.6063 -2.0337 0.9727
1.4183 -6.4582 -2.0338 0.9727
3.5387 -5.5856 -2.0338 0.9727
4.4536 -4.8875 -2.0338 0.9727
4.8619 -4.4814 -2.0338 0.9727
-3.7276 -4.8516 -2.0337 0.9745
-3.2913 -5.1575 -2.0337 0.9745
-1.3321 -5.9715 -2.0337 0.9745
-0.8074 -6.0648 -2.0337 0.9745
0.2564 -6.1129 -2.0337 0.9745
4.1209 -4.5225 -2.0338 0.9745
4.4988 -4.1467 -2.0338 0.9745
-3.4650 -4.5096 -2.0337 0.9761
-3.0593 -4.7941 -2.0337 0.9761
-2.6305 -5.0421 -2.0337 0.9761
-0.2570 -5.6813 -2.0337 0.9761
2.6139 -5.0508 -2.0338 0.9761
3.0436 -4.8042 -2.0338 0.9761
4.1818 -3.8545 -2.0338 0.9761
4.5013 -3.4760 -2.0338 0.9761
-2.0360 -4.9009 -2.0337 0.9775
0.6830 -5.2629 -2.0338 0.9775
1.5851 -5.0648 -2.0338 0.9775
2.4393 -4.7133 -2.0338 0.9775
3.9023 -3.5969 -2.0338 0.9775
-3.0275 -3.9404 -2.0337 0.9788
-2.6731 -4.1889 -2.0337 0.9788
-0.6557 -4.9257 -2.0338 0.9788
1.4842 -4.7423 -2.0338 0.9788
1.8913 -4.5952 -2.0338 0.9788
2.2839 -4.4132 -2.0338 0.9788
3.0146 -3.9504 -2.0338 0.9788
3.3469 -3.6731 -2.0338 0.9788
3.6539 -3.3679 -2.0338 0.9788
-2.8431 -3.7004 -2.0337 0.9798
-1.7903 -4.3095 -2.0337 0.9798
-1.4085 -4.4489 -2.0338 0.9798
-1.0160 -4.5546 -2.0338 0.9798
0.6005 -4.6277 -2.0338 0.9798
1.0010 -4.5579 -2.0338 0.9798
1.3938 -4.4535 -2.0338 0.9798
1.7761 -4.3154 -2.0338 0.9798
2.4974 -3.9420 -2.0338 0.9798
2.8310 -3.7098 -2.0338 0.9798
3.6936 -2.8521 -2.0338 0.9798
-2.6769 -3.4840 -2.0337 0.9808
-2.0323 -3.8954 -2.0338 0.9808
-1.3261 -4.1887 -2.0338 0.9808
-0.9566 -4.2882 -2.0338 0.9808
-0.5798 -4.3552 -2.0338 0.9808
-0.1986 -4.3892 -2.0338 0.9808
0.5654 -4.3571 -2.0338 0.9808
0.9425 -4.2914 -2.0338 0.9808
1.3123 -4.1931 -2.0338 0.9808
1.6722 -4.0630 -2.0338 0.9808
2.3514 -3.7115 -2.0338 0.9808
2.6654 -3.4929 -2.0338 0.9808
2.9593 -3.2477 -2.0338 0.9808
3.2307 -2.9778 -2.0338 0.9808
3.4775 -2.6854 -2.0338 0.9808
-2.5261 -3.2877 -2.0338 0.9817
-1.9178 -3.6759 -2.0338 0.9817
-1.5906 -3.8288 -2.0338 0.9817
-1.2514 -3.9527 -2.0338 0.9817
-0.5471 -4.1098 -2.0338 0.9817
-0.1874 -4.1418 -2.0338 0.9817
0.1738 -4.1424 -2.0338 0.9817
0.8893 -4.0496 -2.0338 0.9817
1.2384 -3.9569 -2.0338 0.9817
2.5153 -3.2961 -2.0338 0.9817
-2.3885 -3.1086 -2.0338 0.9825
-1.8133 -3.4757 -2.0338 0.9825
-0.5173 -3.8860 -2.0338 0.9825
0.1643 -3.9168 -2.0338 0.9825
0.5045 -3.8877 -2.0338 0.9825
0.8409 -3.8290 -2.0338 0.9825
1.1709 -3.7413 -2.0338 0.9825
1.8019 -3.4816 -2.0338 0.9825
2.0980 -3.3116 -2.0338 0.9825
2.8826 -2.6570 -2.0338 0.9825
3.1029 -2.3961 -2.0338 0.9825
-2.2623 -2.9445 -2.0338 0.9832
-1.7175 -3.2921 -2.0338 0.9832
-1.1207 -3.5400 -2.0338 0.9832
-0.1678 -3.7095 -2.0338 0.9832
0.1556 -3.7100 -2.0338 0.9832
0.7965 -3.6268 -2.0338 0.9832
1.1091 -3.5437 -2.0338 0.9832
1.4133 -3.4338 -2.0338 0.9832
1.7067 -3.2978 -2.0338 0.9832
1.9873 -3.1368 -2.0338 0.9832
2.5010 -2.7447 -2.0338 0.9832
2.7304 -2.5167 -2.0338 0.9832
2.9390 -2.2695 -2.0338 0.9832
-2.1461 -2.7933 -2.0338 0.9839
-1.8950 -2.9695 -2.0338 0.9839
-1.0632 -3.3583 -2.0338 0.9839
-0.7669 -3.4381 -2.0338 0.9839
-0.4648 -3.4918 -2.0338 0.9839
-0.1592 -3.5190 -2.0338 0.9839
0.1476 -3.5195 -2.0338 0.9839
0.7556 -3.4406 -2.0338 0.9839
1.0521 -3.3618 -2.0338 0.9839
1.6191 -3.1285 -2.0338 0.9839
1.8852 -2.9757 -2.0338 0.9839
2.1370 -2.8004 -2.0338 0.9839
2.5902 -2.3875 -2.0338 0.9839
2.7881 -2.1530 -2.0338 0.9839
