ply
format ascii 1.0
element vertex 215
property float32 x
property float32 y
property float32 z
property float32 I
end_header
2.9429 18.5681 3.3149 0.9265
-11.8666 13.0498 3.1101 0.9309
-11.4598 12.6024 2.6095 0.9334
2.9087 18.3526 2.4197 0.9278
1.2856 18.9708 2.4761 0.9262
-11.3018 12.4287 2.1876 0.9345
2.7965 17.6449 1.9184 0.9307
-12.9429 11.8975 1.8878 0.9317
2.7875 17.5879 1.5074 0.9310
-11.5492 12.7006 1.4532 0.9334
2.7855 17.5756 1.1035 0.9312
1.2794 18.8784 1.1733 0.9270
-12.1427 13.3534 1.1192 0.9302
-12.4505 13.6919 0.7297 0.9286
-0.8627 7.7146 -0.7453 0.9693
-2.2098 7.3949 -0.7410 0.9695
8.4368 14.8996 -2.0339 0.9334
7.0711 15.5940 -2.0339 0.9334
5.6488 16.1636 -2.0339 0.9334
-0.3740 17.1180 -2.0339 0.9334
-0.8352 7.4682 -0.8927 0.9702
-2.1959 7.3482 -0.9110 0.9696
-6.3491 15.9010 -2.0338 0.9334
-11.5188 12.6673 -2.0338 0.9334
-12.6049 11.5868 -2.0338 0.9334
-13.5903 10.4135 -2.0338 0.9334
7.0730 12.4909 -2.0339 0.9437
5.9280 13.0732 -2.0339 0.9437
4.7357 13.5508 -2.0339 0.9437
2.2470 14.1774 -2.0339 0.9437
-0.8342 7.4603 -1.0636 0.9701
-7.6115 12.1697 -2.0338 0.9437
-8.6689 11.4404 -2.0338 0.9437
-9.6568 10.6197 -2.0338 0.9437
6.0833 10.7432 -2.0339 0.9512
5.0986 11.2439 -2.0339 0.9512
4.0730 11.6547 -2.0339 0.9512
1.9326 12.1937 -2.0338 0.9512
0.8348 12.3176 -2.0338 0.9512
-0.2696 12.3429 -2.0338 0.9512
-0.8299 7.4220 -1.2303 0.9702
-1.4916 7.3257 -1.2316 0.9701
-4.5780 11.4654 -2.0338 0.9512
-5.5847 11.0103 -2.0338 0.9512
-6.5466 10.4669 -2.0338 0.9512
-8.3057 9.1338 -2.0338 0.9512
-9.0889 8.3547 -2.0338 0.9512
-9.7993 7.5087 -2.0338 0.9512
5.3317 9.4158 -2.0338 0.9569
2.6423 10.4929 -2.0338 0.9569
1.6937 10.6871 -2.0338 0.9569
0.7316 10.7958 -2.0338 0.9569
-0.2364 10.8179 -2.0338 0.9569
-0.8146 7.2851 -1.3778 0.9706
-1.4715 7.2269 -1.3862 0.9704
-2.1457 7.1803 -1.4086 0.9700
-6.5348 8.6241 -2.0338 0.9569
-7.9660 7.3226 -2.0338 0.9569
-8.5887 6.5811 -2.0338 0.9569
4.7410 8.3726 -2.0338 0.9614
3.9735 8.7629 -2.0338 0.9614
3.1743 9.0830 -2.0338 0.9614
1.5061 9.5031 -2.0338 0.9614
-0.2102 9.6193 -2.0338 0.9614
-0.8168 7.3051 -1.5538 0.9704
-1.4489 7.1159 -1.5350 0.9707
-2.0755 6.9454 -1.5323 0.9708
-3.5679 8.9355 -2.0338 0.9614
-4.3524 8.5808 -2.0338 0.9614
-5.1020 8.1573 -2.0338 0.9614
-5.8108 7.6686 -2.0338 0.9614
-6.4730 7.1184 -2.0338 0.9614
-7.0834 6.5113 -2.0338 0.9614
-7.6371 5.8519 -2.0338 0.9614
4.2640 7.5303 -2.0338 0.9651
3.5738 7.8813 -2.0338 0.9651
2.1132 8.3918 -2.0338 0.9651
1.3546 8.5470 -2.0338 0.9651
0.5851 8.6339 -2.0338 0.9651
-0.8173 7.3089 -1.7285 0.9702
-2.1464 7.1825 -1.7618 0.9697
-3.2089 8.0366 -2.0338 0.9651
-3.9145 7.7176 -2.0338 0.9651
-4.5887 7.3367 -2.0338 0.9651
-5.2262 6.8971 -2.0338 0.9651
-5.8219 6.4023 -2.0338 0.9651
-6.8688 5.2633 -2.0338 0.9651
2.5914 7.4153 -2.0338 0.9681
1.9182 7.6173 -2.0338 0.9681
0.5311 7.8371 -2.0338 0.9681
-0.1716 7.8532 -2.0338 0.9681
-0.8267 7.3929 -1.9261 0.9697
-2.9128 7.2950 -2.0338 0.9681
-4.7439 6.2606 -2.0338 0.9681
-5.2846 5.8115 -2.0338 0.9681
-5.7829 5.3158 -2.0338 0.9681
2.9669 6.5430 -2.0338 0.9706
-0.7984 7.1397 -2.0338 0.9706
-1.4334 7.0397 -2.0338 0.9706
-2.0570 6.8834 -2.0338 0.9706
-2.6641 6.6720 -2.0338 0.9706
-3.2498 6.4071 -2.0338 0.9706
-3.8096 6.0909 -2.0338 0.9706
-4.8333 5.3152 -2.0338 0.9706
-5.7025 4.3695 -2.0338 0.9706
3.2582 5.7539 -2.0338 0.9727
2.7307 6.0222 -2.0338 0.9727
2.1815 6.2421 -2.0338 0.9727
1.0350 6.5308 -2.0338 0.9727
0.4471 6.5972 -2.0338 0.9727
-0.1444 6.6107 -2.0338 0.9727
-0.7348 6.5713 -2.0338 0.9727
-1.3193 6.4794 -2.0338 0.9727
-2.9911 5.8970 -2.0338 0.9727
-3.9934 5.2702 -2.0338 0.9727
3.0148 5.3242 -2.0338 0.9745
2.5268 5.5724 -2.0338 0.9745
-0.1337 6.1170 -2.0338 0.9745
-0.6800 6.0805 -2.0338 0.9745
-1.7518 5.8623 -2.0338 0.9745
-2.2689 5.6822 -2.0338 0.9745
-2.7677 5.4566 -2.0338 0.9745
-3.2444 5.1873 -2.0338 0.9745
-3.6951 4.8765 -2.0338 0.9745
-4.5044 4.1406 -2.0338 0.9745
2.8023 4.9489 -2.0338 0.9761
1.8762 5.3689 -2.0338 0.9761
1.3888 5.5151 -2.0338 0.9761
0.3846 5.6743 -2.0338 0.9761
-0.6320 5.6520 -2.0338 0.9761
-1.1347 5.5729 -2.0338 0.9761
-1.6284 5.4491 -2.0338 0.9761
-2.1089 5.2818 -2.0338 0.9761
-3.4347 4.5329 -2.0338 0.9761
-3.8261 4.2077 -2.0338 0.9761
-4.1870 3.8488 -2.0338 0.9761
-4.5143 3.4591 -2.0338 0.9761
2.1918 4.8335 -2.0338 0.9775
1.7509 5.0101 -2.0338 0.9775
0.3589 5.2950 -2.0338 0.9775
-0.5898 5.2743 -2.0338 0.9775
-1.0589 5.2004 -2.0338 0.9775
-1.5195 5.0850 -2.0338 0.9775
-1.9680 4.9288 -2.0338 0.9775
-2.8142 4.4995 -2.0338 0.9775
-3.2052 4.2299 -2.0338 0.9775
-4.2125 3.2279 -2.0338 0.9775
2.4486 4.3242 -2.0338 0.9788
1.6394 4.6911 -2.0338 0.9788
1.2135 4.8188 -2.0338 0.9788
0.7779 4.9080 -2.0338 0.9788
-0.1086 4.9681 -2.0338 0.9788
-0.5522 4.9385 -2.0338 0.9788
-0.9914 4.8694 -2.0338 0.9788
-1.4228 4.7612 -2.0338 0.9788
-1.8427 4.6150 -2.0338 0.9788
-2.6350 4.2130 -2.0338 0.9788
-3.0011 3.9606 -2.0338 0.9788
-3.9444 3.0224 -2.0338 0.9788
1.9272 4.2502 -2.0338 0.9798
1.5396 4.4054 -2.0338 0.9798
0.7305 4.6091 -2.0338 0.9798
0.3155 4.6560 -2.0338 0.9798
-0.1020 4.6655 -2.0338 0.9798
-0.5186 4.6377 -2.0338 0.9798
-1.7305 4.3339 -2.0338 0.9798
-2.8183 3.7194 -2.0338 0.9798
-3.4356 3.1581 -2.0338 0.9798
2.1650 3.8234 -2.0338 0.9808
1.4496 4.1478 -2.0338 0.9808
1.0730 4.2607 -2.0338 0.9808
0.2971 4.3837 -2.0338 0.9808
-0.0960 4.3927 -2.0338 0.9808
-0.4883 4.3665 -2.0338 0.9808
-0.8766 4.3054 -2.0338 0.9808
-1.9875 3.9185 -2.0338 0.9808
-2.6535 3.5019 -2.0338 0.9808
-2.9559 3.2507 -2.0338 0.9808
-3.2347 2.9734 -2.0338 0.9808
-3.4875 2.6723 -2.0338 0.9808
1.3679 3.9141 -2.0338 0.9817
1.0125 4.0207 -2.0338 0.9817
0.2804 4.1367 -2.0338 0.9817
-0.0905 4.1452 -2.0338 0.9817
-1.5375 3.8505 -2.0338 0.9817
1.6190 3.5704 -2.0338 0.9825
0.6137 3.8720 -2.0338 0.9825
0.2651 3.9114 -2.0338 0.9825
-0.7822 3.8415 -2.0338 0.9825
-1.1225 3.7562 -2.0338 0.9825
-1.4538 3.6408 -2.0338 0.9825
-2.0788 3.3238 -2.0338 0.9825
-3.1118 2.3844 -2.0338 0.9825
1.8297 3.2313 -2.0338 0.9832
1.5336 3.3819 -2.0338 0.9832
0.9068 3.6009 -2.0338 0.9832
0.5813 3.6675 -2.0338 0.9832
0.2511 3.7048 -2.0338 0.9832
-0.0811 3.7124 -2.0338 0.9832
-0.7409 3.6386 -2.0338 0.9832
-1.0632 3.5579 -2.0338 0.9832
-1.3770 3.4486 -2.0338 0.9832
-1.6797 3.3116 -2.0338 0.9832
-1.9691 3.1482 -2.0338 0.9832
-2.2426 2.9596 -2.0338 0.9832
-2.7337 2.5129 -2.0338 0.9832
1.7357 3.0654 -2.0338 0.9839
0.8602 3.4160 -2.0338 0.9839
0.5514 3.4792 -2.0338 0.9839
0.2382 3.5146 -2.0338 0.9839
-0.3914 3.5008 -2.0338 0.9839
-0.7029 3.4518 -2.0338 0.9839
-1.3062 3.2715 -2.0338 0.9839
-1.8679 2.9866 -2.0338 0.9839
-2.1274 2.8076 -2.0338 0.9839
