ply
format ascii 1.0
element vertex 217
property float32 x
property float32 y
property float32 z
property float32 I
end_header
-11.2120 12.6016 2.1965 0.9342
-12.6921 11.9643 2.2714 0.9321
-11.6112 13.0503 1.4787 0.9323
-12.7267 11.9969 1.4806 0.9322
-12.0391 13.5313 1.1231 0.9300
-2.1930 7.3993 -0.7409 0.9695
-16.1543 5.2978 -1.6322 0.9340
-7.6588 15.3150 -2.0340 0.9334
-8.9722 14.5843 -2.0340 0.9334
-10.2162 13.7413 -2.0340 0.9334
-11.3817 12.7924 -2.0339 0.9334
-16.2692 5.3355 -2.0338 0.9334
-16.6743 3.8884 -2.0338 0.9334
-16.9507 2.4113 -2.0338 0.9334
-16.9935 -2.0851 -2.0337 0.9334
-16.7451 -3.5671 -2.0337 0.9334
-16.3677 -5.0216 -2.0337 0.9334
-5.2703 13.3530 -2.0340 0.9437
-12.6485 6.7871 -2.0339 0.9437
-13.1948 5.6519 -2.0339 0.9437
-14.2109 2.0215 -2.0338 0.9437
-14.3453 -0.4921 -2.0338 0.9437
-14.0386 -2.9906 -2.0337 0.9437
-13.7222 -4.2100 -2.0337 0.9437
-2.1488 7.2505 -1.2458 0.9698
-4.5328 11.4846 -2.0340 0.9512
-5.5223 11.0428 -2.0340 0.9512
-7.3664 9.9081 -2.0339 0.9512
-8.2068 9.2239 -2.0339 0.9512
-8.9839 8.4688 -2.0339 0.9512
-9.6918 7.6483 -2.0339 0.9512
-10.3251 6.7690 -2.0339 0.9512
-11.3486 4.8611 -2.0339 0.9512
-11.7311 3.8472 -2.0338 0.9512
-12.0232 2.8038 -2.0338 0.9512
-12.2226 1.7387 -2.0338 0.9512
-12.3279 0.6602 -2.0338 0.9512
-12.2535 -1.5035 -2.0338 0.9512
-11.8023 -3.6210 -2.0338 0.9512
-2.1285 7.1818 -1.4079 0.9700
-4.8401 9.6785 -2.0340 0.9569
-5.6700 9.2167 -2.0340 0.9569
-6.4564 8.6840 -2.0339 0.9569
-7.8740 7.4225 -2.0339 0.9569
-8.4945 6.7034 -2.0339 0.9569
-9.9466 4.2605 -2.0339 0.9569
-10.2818 3.3719 -2.0338 0.9569
-10.8049 0.5787 -2.0338 0.9569
-10.8140 -0.3710 -2.0338 0.9569
-10.7398 -1.3178 -2.0338 0.9569
-10.3443 -3.1736 -2.0338 0.9569
-2.0575 6.9422 -1.5305 0.9708
-5.0418 8.1956 -2.0339 0.9614
-5.7410 7.7219 -2.0339 0.9614
-6.3960 7.1887 -2.0339 0.9614
-7.0016 6.6001 -2.0339 0.9614
-7.5533 5.9607 -2.0339 0.9614
-8.0468 5.2754 -2.0339 0.9614
-8.4784 4.5495 -2.0339 0.9614
-9.1427 2.9984 -2.0339 0.9614
-9.3704 2.1851 -2.0338 0.9614
-9.5257 1.3551 -2.0338 0.9614
-9.6079 0.5146 -2.0338 0.9614
-9.4104 -2.0046 -2.0338 0.9614
-9.1983 -2.8221 -2.0338 0.9614
-2.1316 7.1922 -1.7630 0.9696
-3.8709 7.7403 -2.0340 0.9651
-4.5346 7.3711 -2.0339 0.9651
-5.1635 6.9450 -2.0339 0.9651
-5.7525 6.4655 -2.0339 0.9651
-6.7935 5.3611 -2.0339 0.9651
-7.2373 4.7447 -2.0339 0.9651
-8.4277 1.9653 -2.0338 0.9651
-8.5675 1.2187 -2.0338 0.9651
-2.2322 7.5318 -2.0340 0.9681
-2.8840 7.3071 -2.0340 0.9681
-6.1665 4.8663 -2.0339 0.9681
-6.5694 4.3068 -2.0339 0.9681
-6.9218 3.7142 -2.0339 0.9681
-7.2207 3.0929 -2.0339 0.9681
-7.8505 -0.2693 -2.0338 0.9681
-7.7966 -0.9567 -2.0338 0.9681
-7.6827 -1.6366 -2.0338 0.9681
-2.0416 6.8886 -2.0340 0.9706
-2.6377 6.6830 -2.0340 0.9706
-3.2136 6.4260 -2.0339 0.9706
-4.7757 5.3676 -2.0339 0.9706
-5.2279 4.9282 -2.0339 0.9706
-5.6399 4.4508 -2.0339 0.9706
-6.3307 3.3970 -2.0339 0.9706
-6.8267 2.2388 -2.0339 0.9706
-6.9967 1.6316 -2.0339 0.9706
-7.1128 1.0118 -2.0339 0.9706
-7.1801 -0.2463 -2.0338 0.9706
-7.1308 -0.8750 -2.0338 0.9706
-7.0266 -1.4969 -2.0338 0.9706
-1.8791 6.3402 -2.0340 0.9727
-2.9578 5.9144 -2.0339 0.9727
-3.9454 5.3067 -2.0339 0.9727
-4.8118 4.5358 -2.0339 0.9727
-5.1910 4.0964 -2.0339 0.9727
-6.0784 2.6036 -2.0339 0.9727
-6.4397 1.5017 -2.0339 0.9727
-6.6030 0.3536 -2.0338 0.9727
-6.5632 -0.8053 -2.0338 0.9727
-6.4673 -1.3777 -2.0338 0.9727
-3.2061 5.2116 -2.0339 0.9745
-3.6507 4.9104 -2.0339 0.9745
-4.0672 4.5713 -2.0339 0.9745
-4.8033 3.7905 -2.0339 0.9745
-5.1171 3.3547 -2.0339 0.9745
-5.3915 2.8931 -2.0339 0.9745
-5.8140 1.9067 -2.0339 0.9745
-5.9587 1.3896 -2.0339 0.9745
-6.1098 0.3272 -2.0339 0.9745
-6.1150 -0.2098 -2.0338 0.9745
-5.9843 -1.2748 -2.0338 0.9745
-1.6161 5.4532 -2.0339 0.9761
-2.5439 5.0870 -2.0339 0.9761
-4.1386 3.9013 -2.0339 0.9761
-4.4648 3.5233 -2.0339 0.9761
-4.7565 3.1183 -2.0339 0.9761
-5.2280 2.2394 -2.0339 0.9761
-5.4043 1.7723 -2.0339 0.9761
-5.5388 1.2916 -2.0339 0.9761
-5.6307 0.8010 -2.0339 0.9761
-5.6793 0.3042 -2.0339 0.9761
-5.6450 -0.6927 -2.0338 0.9761
-5.5625 -1.1850 -2.0338 0.9761
-5.4372 -1.6681 -2.0338 0.9761
-1.9486 4.9369 -2.0339 0.9775
-2.3739 4.7470 -2.0339 0.9775
-3.1667 4.2593 -2.0339 0.9775
-3.8620 3.6406 -2.0339 0.9775
-4.4386 2.9099 -2.0339 0.9775
-4.8786 2.0897 -2.0339 0.9775
-5.0431 1.6539 -2.0339 0.9775
-5.1686 1.2053 -2.0339 0.9775
-5.2544 0.7474 -2.0339 0.9775
-5.2997 0.2838 -2.0339 0.9775
-5.2678 -0.6464 -2.0338 0.9775
-1.4121 4.7648 -2.0339 0.9788
-1.8245 4.6225 -2.0339 0.9788
-2.2228 4.4448 -2.0339 0.9788
-3.6161 3.4088 -2.0339 0.9788
-3.9011 3.0785 -2.0339 0.9788
-4.5680 1.9567 -2.0339 0.9788
-2.1190 0.4941 -0.8905 0.9906
-2.1227 -0.0729 -0.8693 0.9909
-2.1212 -0.4519 -0.8876 0.9907
-1.3261 4.4746 -2.0339 0.9798
-3.1021 3.4866 -2.0339 0.9798
-3.3959 3.2012 -2.0339 0.9798
-3.6635 2.8911 -2.0339 0.9798
-4.2898 1.8375 -2.0339 0.9798
-1.9009 0.4433 -0.8507 0.9915
-1.9032 0.2707 -0.8378 0.9916
-1.9177 0.1027 -0.8370 0.9917
-1.9187 -0.0659 -0.8367 0.9917
-1.9050 -0.2338 -0.8364 0.9917
-1.9035 -0.4055 -0.8482 0.9915
-2.0783 -0.6377 -0.9474 0.9906
-1.2486 4.2129 -2.0339 0.9808
-2.9207 3.2827 -2.0339 0.9808
-3.4493 2.7220 -2.0339 0.9808
-3.6746 2.4091 -2.0339 0.9808
-1.6330 0.5355 -0.7955 0.9925
-1.5852 0.3696 -0.7534 0.9929
-1.6106 0.2291 -0.7530 0.9929
-1.5939 0.0853 -0.7389 0.9930
-1.5223 3.8569 -2.0339 0.9817
-1.8546 3.7085 -2.0339 0.9817
-2.1726 3.5316 -2.0339 0.9817
-2.7562 3.0978 -2.0339 0.9817
-3.0171 2.8442 -2.0339 0.9817
-3.2549 2.5686 -2.0339 0.9817
-3.4676 2.2733 -2.0339 0.9817
-3.6536 1.9605 -2.0339 0.9817
-1.2827 0.4206 -0.6621 0.9940
-1.3236 0.3086 -0.6667 0.9940
-1.3522 -0.1660 -0.6683 0.9939
-1.3303 -0.2834 -0.6672 0.9940
-1.2930 -0.3967 -0.6634 0.9940
-1.1140 3.7590 -2.0339 0.9825
-1.7536 3.5066 -2.0339 0.9825
-2.0543 3.3393 -2.0339 0.9825
-2.3392 3.1463 -2.0339 0.9825
-3.2787 2.1495 -2.0339 0.9825
-3.4546 1.8537 -2.0339 0.9825
-1.1710 0.2730 -0.6238 0.9946
-1.1958 0.1701 -0.6266 0.9946
-1.1991 0.0642 -0.6230 0.9946
-1.1972 -0.0411 -0.6215 0.9946
-1.1990 -0.1471 -0.6267 0.9946
-1.1463 -0.3517 -0.6220 0.9946
-1.0552 3.5605 -2.0339 0.9832
-1.9458 3.1629 -2.0339 0.9832
-2.2156 2.9801 -2.0339 0.9832
-2.7022 2.5472 -2.0339 0.9832
-2.9151 2.3005 -2.0339 0.9832
-3.1056 2.0360 -2.0339 0.9832
-3.2721 1.7558 -2.0339 0.9832
-1.0044 0.4302 -0.5985 0.9950
-1.0307 0.3380 -0.5941 0.9951
-1.0496 0.2447 -0.5903 0.9951
-1.0734 0.1527 -0.5938 0.9951
-1.0814 0.0579 -0.5931 0.9951
-1.0765 -0.1321 -0.5940 0.9951
-1.0345 -0.3174 -0.5927 0.9951
-1.2933 3.2768 -2.0339 0.9839
-2.3417 2.6319 -2.0339 0.9839
-2.9461 1.9315 -2.0339 0.9839
-0.9314 0.3989 -0.5850 0.9953
-0.9521 0.3122 -0.5785 0.9954
-0.9861 -0.1210 -0.5736 0.9954
-0.9724 -0.2072 -0.5740 0.9954
-0.9553 -0.2931 -0.5769 0.9954
