ply
format ascii 1.0
element vertex 204
property float32 x
property float32 y
property float32 z
property float32 I
end_header
-12.2659 -7.7448 -1.3927 0.9434
2.7123 -6.1718 -0.6472 0.9733
-12.6324 -11.5555 -2.0337 0.9334
-11.5572 -12.6308 -2.0337 0.9334
-9.1424 -14.4750 -2.0337 0.9334
-7.8219 -15.2291 -2.0337 0.9334
-6.4396 -15.8632 -2.0337 0.9334
-5.0066 -16.3721 -2.0337 0.9334
-2.0336 -16.9995 -2.0337 0.9334
1.0036 -17.0914 -2.0337 0.9334
4.0091 -16.6451 -2.0337 0.9334
2.1797 -6.4647 -0.8104 0.9729
2.6342 -5.9940 -0.7777 0.9740
-13.3002 -5.3970 -2.0337 0.9437
-12.7688 -6.5559 -2.0337 0.9437
-7.6647 -12.1354 -2.0337 0.9437
-5.3987 -13.2993 -2.0337 0.9437
-4.1973 -13.7259 -2.0337 0.9437
-2.9628 -14.0443 -2.0337 0.9437
-1.7048 -14.2518 -2.0337 0.9437
-0.4335 -14.3470 -2.0337 0.9437
0.8413 -14.3289 -2.0337 0.9437
2.1096 -14.1978 -2.0338 0.9437
2.0942 -6.2109 -0.9287 0.9739
2.6190 -5.9595 -0.9223 0.9740
-11.4394 -4.6419 -2.0338 0.9512
-10.9823 -5.6387 -2.0337 0.9512
-9.8125 -7.4912 -2.0337 0.9512
-8.3337 -9.1078 -2.0337 0.9512
-6.5924 -10.4376 -2.0337 0.9512
-3.6102 -11.8056 -2.0337 0.9512
-1.4664 -12.2579 -2.0338 0.9512
-0.3728 -12.3397 -2.0338 0.9512
1.8145 -12.2114 -2.0338 0.9512
2.0072 -5.9529 -1.0349 0.9749
2.5666 -5.8403 -1.0509 0.9745
-10.0262 -4.0684 -2.0338 0.9569
-9.1490 -5.7767 -2.0338 0.9569
-8.6003 -6.5658 -2.0338 0.9569
-7.3042 -7.9827 -2.0337 0.9569
-6.5670 -8.5994 -2.0337 0.9569
-3.1641 -10.3472 -2.0338 0.9569
-2.2335 -10.5871 -2.0338 0.9569
-1.2852 -10.7436 -2.0338 0.9569
-0.3268 -10.8153 -2.0338 0.9569
1.4928 -6.1980 -1.1983 0.9744
2.5162 -5.7255 -1.1755 0.9749
-8.1354 -5.1368 -2.0338 0.9614
-5.8395 -7.6467 -2.0338 0.9614
-5.1379 -8.1347 -2.0338 0.9614
-4.3958 -8.5585 -2.0338 0.9614
-3.6189 -8.9148 -2.0338 0.9614
-2.8136 -9.2009 -2.0338 0.9614
-1.1428 -9.5534 -2.0338 0.9614
-0.2905 -9.6171 -2.0338 0.9614
0.5640 -9.6050 -2.0338 0.9614
1.9778 -5.8656 -1.3085 0.9750
2.5704 -5.8488 -1.3504 0.9742
-8.0186 -3.2538 -2.0338 0.9651
-7.3171 -4.6200 -2.0338 0.9651
-5.8417 -6.3843 -2.0338 0.9651
-5.2521 -6.8775 -2.0338 0.9651
-3.9536 -7.6976 -2.0338 0.9651
-2.5306 -8.2753 -2.0338 0.9651
-1.0279 -8.5923 -2.0338 0.9651
-0.2613 -8.6497 -2.0338 0.9651
0.5073 -8.6388 -2.0338 0.9651
1.4571 -6.0496 -1.4625 0.9748
1.9767 -5.8623 -1.4540 0.9749
2.5554 -5.8147 -1.4927 0.9742
-7.2786 -2.9536 -2.0338 0.9681
-6.9878 -3.5878 -2.0338 0.9681
-4.1946 -6.6412 -2.0338 0.9681
-3.5887 -6.9872 -2.0338 0.9681
-2.9545 -7.2782 -2.0338 0.9681
-1.6214 -7.6859 -2.0338 0.9681
-0.9330 -7.7994 -2.0338 0.9681
-0.2372 -7.8515 -2.0338 0.9681
0.4605 -7.8416 -2.0338 0.9681
-6.6570 -2.7013 -2.0338 0.9706
-6.0747 -3.8356 -2.0338 0.9706
-5.7104 -4.3595 -2.0338 0.9706
-3.8364 -6.0741 -2.0338 0.9706
-2.1009 -6.8702 -2.0338 0.9706
-0.2170 -7.1810 -2.0338 0.9706
0.4211 -7.1720 -2.0338 0.9706
1.9931 -5.9111 -1.7660 0.9744
2.6890 -6.1187 -1.8921 0.9726
-4.8789 -4.4630 -2.0338 0.9727
-4.0132 -5.2552 -2.0338 0.9727
-3.5311 -5.5906 -2.0338 0.9727
-2.4871 -6.1268 -2.0338 0.9727
-1.9337 -6.3233 -2.0338 0.9727
-1.3649 -6.4700 -2.0338 0.9727
-0.1997 -6.6094 -2.0338 0.9727
0.3876 -6.6010 -2.0338 0.9727
2.6604 -6.0537 -2.0339 0.9727
-5.1735 -3.2666 -2.0338 0.9745
-4.8632 -3.7128 -2.0338 0.9745
-4.5146 -4.1297 -2.0338 0.9745
-4.1304 -4.5140 -2.0338 0.9745
-3.7134 -4.8627 -2.0338 0.9745
-2.7954 -5.4426 -2.0338 0.9745
-2.3014 -5.6692 -2.0338 0.9745
-1.2630 -5.9868 -2.0338 0.9745
-0.1848 -6.1158 -2.0338 0.9745
0.3587 -6.1080 -2.0338 0.9745
0.8992 -6.0521 -2.0338 0.9745
1.4327 -5.9485 -2.0338 0.9745
1.9549 -5.7979 -2.0339 0.9745
2.4617 -5.6015 -2.0339 0.9745
-4.5205 -3.4512 -2.0338 0.9761
-4.1964 -3.8387 -2.0338 0.9761
-3.4518 -4.5201 -2.0338 0.9761
-3.0370 -4.8085 -2.0338 0.9761
0.8359 -5.6256 -2.0338 0.9761
1.3318 -5.5293 -2.0338 0.9761
2.2883 -5.2068 -2.0339 0.9761
-4.9178 -1.9956 -2.0338 0.9775
-4.7213 -2.4241 -2.0338 0.9775
-4.2184 -3.2205 -2.0338 0.9775
-3.5827 -3.9155 -2.0338 0.9775
-2.4248 -4.7210 -2.0338 0.9775
-1.5520 -5.0753 -2.0338 0.9775
-1.0955 -5.1930 -2.0338 0.9775
-0.6304 -5.2697 -2.0338 0.9775
-0.1603 -5.3049 -2.0338 0.9775
0.3111 -5.2981 -2.0338 0.9775
2.1354 -4.8588 -2.0339 0.9775
-4.2018 -2.6531 -2.0338 0.9788
-3.9499 -3.0155 -2.0338 0.9788
-3.6667 -3.3541 -2.0338 0.9788
-3.3546 -3.6662 -2.0338 0.9788
-3.0161 -3.9494 -2.0338 0.9788
-2.6537 -4.2015 -2.0338 0.9788
-1.4532 -4.7521 -2.0338 0.9788
-1.0258 -4.8624 -2.0338 0.9788
0.7304 -4.9154 -2.0339 0.9788
1.1636 -4.8313 -2.0339 0.9788
1.5878 -4.7090 -2.0339 0.9788
-4.3243 -1.7547 -2.0338 0.9798
-3.9459 -2.4915 -2.0338 0.9798
-3.7093 -2.8318 -2.0338 0.9798
-3.4434 -3.1498 -2.0338 0.9798
-3.1503 -3.4429 -2.0338 0.9798
-2.8323 -3.7089 -2.0338 0.9798
-2.4921 -3.9456 -2.0338 0.9798
-2.1321 -4.1512 -2.0338 0.9798
-1.7554 -4.3240 -2.0338 0.9798
-1.3647 -4.4628 -2.0338 0.9798
-0.5543 -4.6337 -2.0338 0.9798
-0.1410 -4.6646 -2.0338 0.9798
1.0928 -4.5371 -2.0339 0.9798
1.4911 -4.4221 -2.0339 0.9798
1.8776 -4.2724 -2.0339 0.9798
-3.9087 -2.0069 -2.0338 0.9808
-3.7152 -2.3458 -2.0338 0.9808
-3.4924 -2.6663 -2.0338 0.9808
-2.0074 -3.9085 -2.0338 0.9808
-1.2849 -4.2018 -2.0338 0.9808
-0.1327 -4.3919 -2.0339 0.9808
0.2576 -4.3863 -2.0339 0.9808
0.6457 -4.3462 -2.0339 0.9808
1.0289 -4.2717 -2.0339 0.9808
1.4039 -4.1636 -2.0339 0.9808
1.7678 -4.0226 -2.0339 0.9808
-1.7432 -0.7074 -0.9228 0.9917
-3.6885 -1.8938 -2.0338 0.9817
-2.5165 -3.2953 -2.0338 0.9817
-2.2141 -3.5056 -2.0338 0.9817
-0.8559 -4.0570 -2.0338 0.9817
-0.1252 -4.1444 -2.0339 0.9817
0.2430 -4.1392 -2.0339 0.9817
0.6094 -4.1013 -2.0339 0.9817
-1.1193 -0.4542 -0.6266 0.9946
-3.1161 -2.3790 -2.0338 0.9825
-2.6465 -2.8924 -2.0338 0.9825
-2.0935 -3.3147 -2.0338 0.9825
-1.4746 -3.6326 -2.0338 0.9825
-1.1465 -3.7491 -2.0338 0.9825
-0.8093 -3.8360 -2.0339 0.9825
-0.1184 -3.9187 -2.0339 0.9825
-2.5068 -2.7396 -2.0338 0.9832
-1.6966 -3.3032 -2.0338 0.9832
-1.0859 -3.5511 -2.0339 0.9832
-0.7666 -3.6335 -2.0339 0.9832
-0.1122 -3.7118 -2.0339 0.9832
0.2177 -3.7071 -2.0339 0.9832
0.5457 -3.6731 -2.0339 0.9832
1.1865 -3.5188 -2.0339 0.9832
-0.9368 -0.3802 -0.5837 0.9953
-0.9090 -0.4668 -0.5900 0.9953
-2.5993 -2.3777 -2.0339 0.9839
-2.3780 -2.5990 -2.0339 0.9839
-2.1380 -2.7998 -2.0339 0.9839
-1.8812 -2.9784 -2.0339 0.9839
-1.6095 -3.1336 -2.0339 0.9839
-1.0302 -3.3688 -2.0339 0.9839
-0.7271 -3.4469 -2.0339 0.9839
-0.1064 -3.5212 -2.0339 0.9839
0.2065 -3.5167 -2.0339 0.9839
0.5177 -3.4845 -2.0339 0.9839
1.1256 -3.3381 -2.0339 0.9839
1.4173 -3.2251 -2.0339 0.9839
