ply
format ascii 1.0
element vertex 218
property float32 x
property float32 y
property float32 z
property float32 I
end_header
-12.4661 -7.8283 -1.0793 0.9427
-12.5545 -7.8838 -1.4232 0.9422
-11.2333 -8.5216 -1.3537 0.9449
-11.2334 -8.5217 -1.6749 0.9448
-11.6100 -12.5806 -2.0335 0.9334
-10.4559 -13.5550 -2.0335 0.9334
-5.1247 -16.3343 -2.0335 0.9334
-2.1769 -16.9806 -2.0336 0.9334
-0.6717 -17.1064 -2.0336 0.9334
3.8284 -16.6865 -2.0336 0.9334
2.5888 -6.0885 -0.7859 0.9737
-12.1545 -7.6326 -2.0336 0.9437
-10.6253 -9.6483 -2.0336 0.9437
-9.7335 -10.5473 -2.0336 0.9437
-7.7302 -12.0926 -2.0336 0.9437
-6.6343 -12.7269 -2.0336 0.9437
-4.2964 -13.6942 -2.0336 0.9437
-3.0727 -14.0196 -2.0336 0.9437
-1.8250 -14.2360 -2.0336 0.9437
-0.5631 -14.3415 -2.0336 0.9437
1.9640 -14.2177 -2.0336 0.9437
1.5036 -6.5537 -0.9527 0.9732
1.9980 -6.1573 -0.9172 0.9742
7.8486 -12.0174 -2.0337 0.9437
8.8773 -11.2789 -2.0337 0.9437
-10.4540 -6.5647 -2.0336 0.9512
-9.8346 -7.4606 -2.0336 0.9512
-9.1388 -8.2984 -2.0336 0.9512
-5.7061 -10.9463 -2.0336 0.9512
-4.7191 -11.4067 -2.0336 0.9512
-1.5696 -12.2443 -2.0336 0.9512
0.6048 -12.3297 -2.0336 0.9512
1.6892 -12.2286 -2.0336 0.9512
1.9491 -6.0064 -1.0403 0.9747
3.1685 -5.9362 -1.1085 0.9731
6.7504 -10.3360 -2.0337 0.9512
-9.1625 -5.7538 -2.0336 0.9569
-8.6197 -6.5390 -2.0336 0.9569
-8.0098 -7.2733 -2.0336 0.9569
-5.0012 -9.5941 -2.0336 0.9569
-4.1361 -9.9975 -2.0336 0.9569
-3.2388 -10.3232 -2.0336 0.9569
-2.3163 -10.5686 -2.0336 0.9569
1.4805 -10.7179 -2.0337 0.9569
1.4584 -6.3564 -1.2258 0.9738
2.4623 -5.7909 -1.1828 0.9747
6.6920 -8.5024 -2.0337 0.9569
-8.1474 -5.1163 -2.0336 0.9614
-7.6648 -5.8145 -2.0336 0.9614
-6.5247 -7.0701 -2.0336 0.9614
-5.8761 -7.6177 -2.0336 0.9614
-4.4471 -8.5312 -2.0336 0.9614
-2.0597 -9.3977 -2.0336 0.9614
-0.3775 -9.6135 -2.0337 0.9614
1.3165 -9.5304 -2.0337 0.9614
1.9242 -5.9297 -1.3177 0.9748
2.4695 -5.8079 -1.3340 0.9745
3.0720 -5.7555 -1.3790 0.9737
-7.3279 -4.6017 -2.0336 0.9651
-6.4060 -5.8169 -2.0336 0.9651
-5.2850 -6.8514 -2.0336 0.9651
-4.6605 -7.2906 -2.0336 0.9651
-2.5903 -8.2562 -2.0336 0.9651
-1.1002 -8.5828 -2.0337 0.9651
1.1841 -8.5717 -2.0337 0.9651
5.3520 -6.7998 -2.0337 0.9651
-6.6516 -4.1770 -2.0337 0.9681
-6.2576 -4.7471 -2.0337 0.9681
-4.7973 -6.2192 -2.0336 0.9681
-4.2305 -6.6178 -2.0336 0.9681
-3.6307 -6.9649 -2.0337 0.9681
-0.3082 -7.8485 -2.0337 0.9681
0.3848 -7.8451 -2.0337 0.9681
1.0748 -7.7807 -2.0337 0.9681
1.8839 -5.8054 -1.5803 0.9751
2.4916 -5.8599 -1.6487 0.9740
3.0168 -5.6518 -1.6588 0.9739
4.2951 -6.5764 -2.0337 0.9681
-6.0837 -3.8204 -2.0337 0.9706
-5.3182 -4.8293 -2.0337 0.9706
-4.8719 -5.2792 -2.0337 0.9706
-4.3877 -5.6881 -2.0337 0.9706
-3.8692 -6.0527 -2.0337 0.9706
-3.3207 -6.3702 -2.0337 0.9706
-2.7462 -6.6381 -2.0337 0.9706
-0.9134 -7.1255 -2.0337 0.9706
-0.2818 -7.1783 -2.0337 0.9706
0.9830 -7.1163 -2.0337 0.9706
1.4286 -6.2266 -1.8085 0.9738
1.8892 -5.8217 -1.7327 0.9749
3.9283 -6.0149 -2.0337 0.9706
4.4432 -5.6452 -2.0337 0.9706
-5.5994 -3.5162 -2.0337 0.9727
-4.8949 -4.4448 -2.0337 0.9727
-4.4841 -4.8590 -2.0337 0.9727
-4.0384 -5.2353 -2.0337 0.9727
-3.5612 -5.5709 -2.0337 0.9727
-3.0563 -5.8631 -2.0337 0.9727
-0.8407 -6.5583 -2.0337 0.9727
0.9048 -6.5498 -2.0337 0.9727
1.9259 -5.9347 -1.9191 0.9742
2.5873 -6.0848 -2.0337 0.9727
3.6155 -5.5361 -2.0337 0.9727
4.0895 -5.1958 -2.0337 0.9727
-5.1812 -3.2536 -2.0337 0.9745
-4.8742 -3.6976 -2.0337 0.9745
-4.1492 -4.4961 -2.0337 0.9745
-3.7367 -4.8443 -2.0337 0.9745
-1.3098 -5.9762 -2.0337 0.9745
-0.7779 -6.0684 -2.0337 0.9745
0.2998 -6.1108 -2.0337 0.9745
0.8372 -6.0606 -2.0337 0.9745
2.3941 -5.6304 -2.0337 0.9745
2.8810 -5.3975 -2.0337 0.9745
3.3455 -5.1226 -2.0337 0.9745
-4.8161 -3.0244 -2.0337 0.9761
-3.4734 -4.5029 -2.0337 0.9761
-3.0630 -4.7916 -2.0337 0.9761
-2.6287 -5.0429 -2.0337 0.9761
-2.1740 -5.2550 -2.0337 0.9761
-1.7024 -5.4262 -2.0337 0.9761
-0.2231 -5.6826 -2.0337 0.9761
0.7782 -5.6335 -2.0337 0.9761
1.7554 -5.4094 -2.0337 0.9761
3.5174 -4.4689 -2.0337 0.9761
-4.4942 -2.8222 -2.0337 0.9775
-4.2280 -3.2074 -2.0337 0.9775
-3.5991 -3.9000 -2.0337 0.9775
-2.4530 -4.7059 -2.0337 0.9775
-1.5886 -5.0635 -2.0337 0.9775
-0.2082 -5.3028 -2.0337 0.9775
0.7262 -5.2570 -2.0337 0.9775
2.0766 -4.8838 -2.0337 0.9775
2.9020 -4.4433 -2.0337 0.9775
3.2823 -4.1703 -2.0337 0.9775
-4.2081 -2.6425 -2.0337 0.9788
-3.9588 -3.0032 -2.0337 0.9788
-3.6786 -3.3404 -2.0337 0.9788
-2.2969 -4.4063 -2.0337 0.9788
-1.8996 -4.5916 -2.0337 0.9788
-1.0638 -4.8538 -2.0337 0.9788
-0.1950 -4.9652 -2.0337 0.9788
0.2435 -4.9631 -2.0337 0.9788
0.6800 -4.9223 -2.0337 0.9788
1.5338 -4.7265 -2.0337 0.9788
1.9444 -4.5729 -2.0337 0.9788
2.3399 -4.3837 -2.0337 0.9788
2.7172 -4.1604 -2.0337 0.9788
3.0734 -3.9048 -2.0338 0.9788
-3.7177 -2.8203 -2.0337 0.9798
-3.4546 -3.1370 -2.0337 0.9798
-3.1647 -3.4293 -2.0337 0.9798
-2.5134 -3.9317 -2.0337 0.9798
-2.1570 -4.1379 -2.0337 0.9798
-0.9990 -4.5582 -2.0337 0.9798
0.6386 -4.6226 -2.0337 0.9798
1.0435 -4.5483 -2.0337 0.9798
1.8259 -4.2944 -2.0337 0.9798
2.5517 -3.9071 -2.0337 0.9798
2.8862 -3.6670 -2.0338 0.9798
-3.5003 -2.6554 -2.0337 0.9808
-2.9796 -3.2287 -2.0337 0.9808
-2.6834 -3.4788 -2.0337 0.9808
-2.3664 -3.7018 -2.0337 0.9808
-0.9406 -4.2917 -2.0337 0.9808
-0.5587 -4.3579 -2.0337 0.9808
-0.1723 -4.3902 -2.0337 0.9808
1.7192 -4.0433 -2.0337 0.9808
2.4025 -3.6786 -2.0337 0.9808
-3.5111 -2.2049 -2.0337 0.9817
-3.3031 -2.5058 -2.0337 0.9817
-3.0693 -2.7871 -2.0337 0.9817
-2.2330 -3.4932 -2.0337 0.9817
-1.9164 -3.6765 -2.0337 0.9817
-1.2411 -3.9559 -2.0337 0.9817
-0.5272 -4.1124 -2.0337 0.9817
-0.1626 -4.1428 -2.0337 0.9817
0.9271 -4.0411 -2.0337 0.9817
1.2797 -3.9436 -2.0337 0.9817
1.6223 -3.8155 -2.0337 0.9817
1.9523 -3.6577 -2.0337 0.9817
2.5643 -3.2580 -2.0338 0.9817
-3.3198 -2.0848 -2.0337 0.9825
-3.1232 -2.3693 -2.0337 0.9825
-2.3944 -3.1040 -2.0337 0.9825
-1.8121 -3.4762 -2.0337 0.9825
-1.4986 -3.6224 -2.0337 0.9825
-1.1735 -3.7404 -2.0337 0.9825
-0.8393 -3.8293 -2.0337 0.9825
-0.4984 -3.8884 -2.0337 0.9825
-0.1538 -3.9172 -2.0337 0.9825
0.5364 -3.8834 -2.0337 0.9825
0.8766 -3.8210 -2.0337 0.9825
1.2100 -3.7288 -2.0337 0.9825
1.5340 -3.6077 -2.0337 0.9825
2.1436 -3.2823 -2.0337 0.9825
-3.1445 -1.9746 -2.0337 0.9832
-2.9582 -2.2441 -2.0337 0.9832
-2.5182 -2.7288 -2.0337 0.9832
-1.9999 -3.1286 -2.0337 0.9832
-1.1116 -3.5429 -2.0337 0.9832
-0.7949 -3.6271 -2.0337 0.9832
0.1820 -3.7088 -2.0337 0.9832
0.5082 -3.6783 -2.0337 0.9832
1.1461 -3.5319 -2.0337 0.9832
1.4529 -3.4172 -2.0337 0.9832
1.7485 -3.2758 -2.0337 0.9832
2.0305 -3.1089 -2.0337 0.9832
2.2966 -2.9179 -2.0338 0.9832
-1.0545 -3.3610 -2.0337 0.9839
-0.7541 -3.4408 -2.0337 0.9839
-0.1382 -3.5198 -2.0337 0.9839
0.1726 -3.5183 -2.0337 0.9839
0.4821 -3.4894 -2.0337 0.9839
1.0873 -3.3505 -2.0337 0.9839
1.3784 -3.2417 -2.0337 0.9839
1.6587 -3.1076 -2.0337 0.9839
1.9262 -2.9493 -2.0338 0.9839
