ply
format ascii 1.0
element vertex 199
property float32 x
property float32 y
property float32 z
property float32 I
end_header
3.0585 18.6856 2.9006 0.9262
1.3480 18.6456 2.8639 0.9271
3.0922 18.8920 2.4929 0.9257
1.3683 18.9266 2.4711 0.9263
2.8873 17.6396 1.1084 0.9309
1.3723 18.9831 1.1802 0.9266
2.9277 17.8868 0.3062 0.9301
13.6485 9.2954 -0.8375 0.9360
-1.5259 7.6033 -0.7445 0.9693
16.6429 4.0306 -2.0341 0.9333
16.2130 5.5113 -2.0341 0.9333
14.9632 8.3272 -2.0341 0.9333
13.2292 10.8735 -2.0341 0.9333
11.0670 13.0679 -2.0341 0.9333
7.1769 15.5479 -2.0341 0.9333
4.2750 16.5821 -2.0341 0.9333
2.7661 16.8993 -2.0341 0.9333
-0.3066 17.1213 -2.0341 0.9333
-0.8132 7.5023 -0.8964 0.9701
-1.4788 7.3690 -0.8928 0.9702
13.9525 3.3791 -2.0341 0.9437
13.1213 5.8243 -2.0341 0.9437
12.5443 6.9810 -2.0341 0.9437
10.2257 10.0763 -2.0341 0.9437
9.2779 10.9553 -2.0341 0.9437
7.1648 12.4404 -2.0341 0.9437
4.8199 13.5227 -2.0341 0.9437
3.5839 13.9014 -2.0341 0.9437
2.3189 14.1674 -2.0341 0.9437
-0.2570 14.3534 -2.0341 0.9437
12.0001 2.9062 -2.0340 0.9512
11.6901 3.9739 -2.0340 0.9512
10.7890 6.0041 -2.0341 0.9512
10.2052 6.9503 -2.0341 0.9512
8.7948 8.6664 -2.0341 0.9512
7.0997 10.1019 -2.0341 0.9512
6.1623 10.6996 -2.0341 0.9512
4.1454 11.6305 -2.0341 0.9512
3.0825 11.9562 -2.0341 0.9512
0.8903 12.3149 -2.0340 0.9512
-0.2210 12.3450 -2.0340 0.9512
-1.4718 7.3340 -1.2323 0.9701
10.2457 3.4829 -2.0340 0.9569
8.9443 6.0916 -2.0340 0.9569
6.9936 8.2581 -2.0341 0.9569
5.4009 9.3776 -2.0341 0.9569
4.5355 9.8254 -2.0340 0.9569
3.6333 10.1935 -2.0340 0.9569
2.7016 10.4789 -2.0340 0.9569
-0.7920 7.3066 -1.3814 0.9705
9.3522 2.2649 -2.0340 0.9614
7.9533 5.4166 -2.0340 0.9614
7.4338 6.1101 -2.0340 0.9614
5.5330 7.8728 -2.0340 0.9614
4.8024 8.3386 -2.0340 0.9614
4.0329 8.7367 -2.0340 0.9614
3.2307 9.0641 -2.0340 0.9614
1.5543 9.4962 -2.0340 0.9614
0.6938 9.5975 -2.0340 0.9614
-0.7900 7.2875 -1.5495 0.9705
8.4113 2.0371 -2.0340 0.9651
8.1940 2.7854 -2.0340 0.9651
7.9102 3.5112 -2.0340 0.9651
7.5623 4.2085 -2.0340 0.9651
6.6859 5.4954 -2.0340 0.9651
6.1645 6.0745 -2.0340 0.9651
5.5931 6.6044 -2.0340 0.9651
4.3193 7.4997 -2.0340 0.9651
2.9057 8.1522 -2.0340 0.9651
2.1605 8.3805 -2.0340 0.9651
0.6240 8.6319 -2.0340 0.9651
7.4377 2.5283 -2.0340 0.9681
6.4930 4.4221 -2.0340 0.9681
6.0689 4.9882 -2.0340 0.9681
5.5956 5.5139 -2.0340 0.9681
1.2689 7.7526 -2.0340 0.9681
0.5664 7.8353 -2.0340 0.9681
-0.7994 7.3748 -1.9207 0.9698
6.9830 1.6912 -2.0340 0.9706
6.5670 2.9150 -2.0340 0.9706
5.1177 5.0430 -2.0340 0.9706
4.6434 5.4829 -2.0340 0.9706
3.5859 6.2262 -2.0340 0.9706
2.4123 6.7679 -2.0340 0.9706
1.1606 7.0905 -2.0340 0.9706
-1.4137 7.0443 -2.0340 0.9706
6.4271 1.5565 -2.0340 0.9727
5.7784 3.2157 -2.0340 0.9727
5.4657 3.7224 -2.0340 0.9727
5.1087 4.1990 -2.0340 0.9727
4.2737 5.0464 -2.0340 0.9727
3.3004 5.7305 -2.0340 0.9727
2.7715 6.0041 -2.0340 0.9727
1.6509 6.4035 -2.0340 0.9727
1.0682 6.5261 -2.0340 0.9727
0.4768 6.5956 -2.0340 0.9727
-1.3011 6.4836 -2.0340 0.9727
5.9470 1.4403 -2.0340 0.9745
5.5928 2.4825 -2.0340 0.9745
5.3468 2.9755 -2.0340 0.9745
5.0575 3.4444 -2.0340 0.9745
4.7271 3.8854 -2.0340 0.9745
4.3584 4.2948 -2.0340 0.9745
3.9545 4.6695 -2.0340 0.9745
2.0544 5.7638 -2.0340 0.9745
0.9884 6.0386 -2.0340 0.9745
-0.6594 6.0833 -2.0340 0.9745
-1.2039 5.9993 -2.0340 0.9745
5.5279 1.3388 -2.0340 0.9761
5.3851 1.8306 -2.0340 0.9761
4.3940 3.6115 -2.0340 0.9761
4.0513 3.9922 -2.0340 0.9761
3.6758 4.3404 -2.0340 0.9761
0.9187 5.6130 -2.0340 0.9761
-0.6129 5.6545 -2.0340 0.9761
-1.1191 5.5765 -2.0340 0.9761
5.1585 1.2493 -2.0340 0.9775
5.0252 1.7082 -2.0340 0.9775
0.8573 5.2379 -2.0340 0.9775
0.3827 5.2937 -2.0340 0.9775
-1.0443 5.2038 -2.0339 0.9775
4.8300 1.1697 -2.0340 0.9787
4.5423 2.0162 -2.0340 0.9787
4.1075 2.7974 -2.0340 0.9787
3.2118 3.7924 -2.0340 0.9787
2.8576 4.0659 -2.0340 0.9787
2.0829 4.5122 -2.0340 0.9787
1.6685 4.6812 -2.0340 0.9787
1.2407 4.8123 -2.0340 0.9787
-0.0890 4.9688 -2.0340 0.9788
4.2657 1.8934 -2.0340 0.9798
4.0780 2.2694 -2.0340 0.9798
3.6054 2.9634 -2.0340 0.9798
3.3243 3.2757 -2.0340 0.9798
3.0161 3.5614 -2.0340 0.9798
2.6836 3.8183 -2.0340 0.9798
2.3292 4.0443 -2.0340 0.9798
1.5669 4.3961 -2.0340 0.9798
1.1651 4.5192 -2.0340 0.9798
0.7539 4.6057 -2.0340 0.9798
0.3366 4.6548 -2.0340 0.9798
4.2707 1.0343 -2.0339 0.9808
2.1930 3.8077 -2.0340 0.9808
1.0970 4.2550 -2.0340 0.9808
-0.0786 4.3934 -2.0339 0.9808
-0.4735 4.3685 -2.0339 0.9808
-0.8645 4.3082 -2.0339 0.9808
3.7899 1.6823 -2.0340 0.9817
3.4272 2.3341 -2.0340 0.9817
2.9535 2.9104 -2.0340 0.9817
2.6797 3.1643 -2.0340 0.9817
2.3843 3.3925 -2.0340 0.9817
1.7378 3.7648 -2.0340 0.9817
1.3921 3.9058 -2.0340 0.9817
1.0352 4.0152 -2.0340 0.9817
0.6698 4.0920 -2.0340 0.9817
-0.0742 4.1458 -2.0339 0.9817
-0.8159 4.0654 -2.0339 0.9817
3.7121 1.2618 -2.0339 0.9825
3.5835 1.5906 -2.0339 0.9825
3.4259 1.9065 -2.0340 0.9825
3.2405 2.2070 -2.0340 0.9825
2.7926 2.7519 -2.0340 0.9825
2.5338 2.9919 -2.0340 0.9825
2.2544 3.2077 -2.0340 0.9825
1.9567 3.3975 -2.0340 0.9825
1.6432 3.5597 -2.0340 0.9825
1.3163 3.6930 -2.0340 0.9825
0.9788 3.7965 -2.0340 0.9825
0.6333 3.8691 -2.0339 0.9825
0.2827 3.9104 -2.0339 0.9825
-0.0702 3.9200 -2.0339 0.9825
-0.4225 3.8978 -2.0339 0.9825
-0.7714 3.8440 -2.0339 0.9825
1.8575 0.4498 -1.0468 0.9913
1.9033 0.6470 -1.1010 0.9909
3.3942 1.5066 -2.0339 0.9832
3.0693 2.0904 -2.0340 0.9832
2.8689 2.3580 -2.0340 0.9832
2.4000 2.8339 -2.0340 0.9832
1.8534 3.2180 -2.0340 0.9832
1.5564 3.3717 -2.0340 0.9832
1.2468 3.4980 -2.0340 0.9832
0.2678 3.7039 -2.0339 0.9832
-0.0665 3.7130 -2.0339 0.9832
-0.4002 3.6919 -2.0339 0.9832
-0.7307 3.6410 -2.0339 0.9832
1.7257 0.5866 -1.0524 0.9916
1.7766 0.7886 -1.1222 0.9911
3.0784 1.7131 -2.0339 0.9839
2.9118 1.9830 -2.0339 0.9839
1.7582 3.0528 -2.0339 0.9839
1.4764 3.1986 -2.0339 0.9839
1.1828 3.3184 -2.0339 0.9839
0.8795 3.4113 -2.0339 0.9839
0.5691 3.4766 -2.0339 0.9839
-0.0630 3.5223 -2.0339 0.9839
-0.3796 3.5023 -2.0339 0.9839
-0.6932 3.4540 -2.0339 0.9839
