ply
format ascii 1.0
element vertex 396
property float32 x
property float32 y
property float32 z
property float32 I
end_header
16.7989 -3.3608 -1.2561 0.9336
16.5583 -3.3126 -1.6212 0.9344
-12.6444 -7.9732 -1.7757 0.9416
-11.3013 -8.6056 -1.6873 0.9444
-12.6539 -11.5311 -2.0336 0.9334
-11.5888 -12.6009 -2.0336 0.9334
-10.4338 -13.5729 -2.0336 0.9334
-9.1975 -14.4392 -2.0336 0.9334
-6.5208 -15.8294 -2.0336 0.9334
-5.1011 -16.3423 -2.0336 0.9334
-2.1539 -16.9841 -2.0336 0.9334
-0.6494 -17.1080 -2.0336 0.9334
0.8602 -17.0989 -2.0337 0.9334
2.3632 -16.9567 -2.0337 0.9334
10.6015 -13.4448 -2.0338 0.9334
11.7449 -12.4588 -2.0338 0.9334
12.7968 -11.3759 -2.0339 0.9334
13.7494 -10.2045 -2.0339 0.9334
14.5950 -8.9537 -2.0339 0.9334
16.4295 -4.8251 -2.0340 0.9334
17.0216 -1.8670 -2.0340 0.9333
17.1201 -0.3603 -2.0341 0.9333
17.0854 1.1493 -2.0341 0.9333
16.6188 4.1300 -2.0341 0.9333
16.1906 5.5779 -2.0341 0.9333
-12.1407 -7.6556 -2.0336 0.9437
-11.4191 -8.6953 -2.0336 0.9437
-9.7158 -10.5643 -2.0336 0.9437
-8.7474 -11.3791 -2.0336 0.9437
-3.0531 -14.0245 -2.0337 0.9437
-1.8058 -14.2390 -2.0337 0.9437
0.7212 -14.3351 -2.0337 0.9437
3.2111 -6.0014 -0.9644 0.9729
8.8879 -11.2716 -2.0338 0.9437
9.8464 -10.4449 -2.0339 0.9437
10.7284 -9.5371 -2.0339 0.9437
12.2358 -7.5064 -2.0339 0.9437
14.0765 -2.8161 -2.0340 0.9437
14.2700 -1.5651 -2.0340 0.9437
14.3525 -0.3020 -2.0340 0.9437
14.3234 0.9635 -2.0341 0.9437
13.9322 3.4623 -2.0341 0.9437
13.1085 5.8537 -2.0341 0.9437
12.5420 6.9857 -2.0341 0.9437
-9.8215 -7.4788 -2.0337 0.9512
-3.6783 -11.7841 -2.0337 0.9512
-2.6259 -12.0624 -2.0337 0.9512
-1.5531 -12.2469 -2.0337 0.9512
-0.4682 -12.3362 -2.0337 0.9512
1.7040 -12.2271 -2.0337 0.9512
1.9545 -6.0004 -1.0396 0.9747
2.5271 -5.9260 -1.0613 0.9742
3.1755 -5.9350 -1.1089 0.9731
6.7605 -10.3301 -2.0338 0.9512
7.6443 -9.6945 -2.0338 0.9512
9.2272 -8.2026 -2.0339 0.9512
9.9141 -7.3580 -2.0339 0.9512
10.5238 -6.4561 -2.0339 0.9512
11.4937 -4.5091 -2.0340 0.9512
11.8463 -3.4791 -2.0340 0.9512
12.2732 -1.3461 -2.0340 0.9512
12.3442 -0.2597 -2.0340 0.9512
12.3192 0.8287 -2.0340 0.9512
12.1984 1.9107 -2.0340 0.9512
11.9827 2.9779 -2.0341 0.9512
11.6739 4.0219 -2.0341 0.9512
10.7869 6.0082 -2.0341 0.9512
-9.1522 -5.7711 -2.0337 0.9569
-8.6082 -6.5549 -2.0337 0.9569
-7.9973 -7.2877 -2.0337 0.9569
-7.3242 -7.9638 -2.0337 0.9569
-4.9864 -9.6023 -2.0337 0.9569
-4.1212 -10.0042 -2.0337 0.9569
-3.2239 -10.3284 -2.0337 0.9569
-1.3613 -10.7340 -2.0337 0.9569
0.5437 -10.8064 -2.0337 0.9569
1.4935 -10.7166 -2.0338 0.9569
1.4654 -6.3532 -1.2255 0.9738
2.5096 -5.8850 -1.2025 0.9743
3.1110 -5.8144 -1.2395 0.9735
6.7000 -8.4968 -2.0338 0.9569
7.4225 -7.8736 -2.0339 0.9569
8.6892 -6.4489 -2.0339 0.9569
9.6862 -4.8240 -2.0339 0.9569
10.0737 -3.9520 -2.0339 0.9569
10.6110 -2.1228 -2.0340 0.9569
10.7569 -1.1798 -2.0340 0.9569
10.7971 0.7263 -2.0340 0.9569
10.6912 1.6746 -2.0340 0.9569
10.5021 2.6099 -2.0340 0.9569
9.4541 5.2659 -2.0341 0.9569
-8.1382 -5.1318 -2.0337 0.9614
-7.6546 -5.8287 -2.0337 0.9614
-6.5129 -7.0816 -2.0337 0.9614
-5.1689 -8.1147 -2.0337 0.9614
-4.4340 -8.5385 -2.0337 0.9614
-3.6646 -8.8959 -2.0337 0.9614
-2.8667 -9.1842 -2.0337 0.9614
-2.0465 -9.4011 -2.0337 0.9614
1.3280 -9.5293 -2.0338 0.9614
1.9252 -5.9105 -1.3140 0.9749
3.0791 -5.7548 -1.3796 0.9737
7.7265 -5.7345 -2.0339 0.9614
8.2017 -5.0316 -2.0339 0.9614
8.9575 -3.5142 -2.0339 0.9614
9.2323 -2.7114 -2.0340 0.9614
9.4354 -1.8876 -2.0340 0.9614
9.6203 -0.2024 -2.0340 0.9614
9.6008 0.6458 -2.0340 0.9614
9.3386 2.3207 -2.0340 0.9614
8.4066 4.6824 -2.0340 0.9614
-7.3196 -4.6155 -2.0337 0.9651
-6.8846 -5.2424 -2.0337 0.9651
-5.2739 -6.8605 -2.0337 0.9651
-3.9880 -7.6796 -2.0337 0.9651
-2.5784 -8.2603 -2.0337 0.9651
-1.8407 -8.4554 -2.0338 0.9651
-1.0887 -8.5847 -2.0338 0.9651
-0.3282 -8.6472 -2.0338 0.9651
0.4348 -8.6426 -2.0338 0.9651
1.1945 -8.5707 -2.0338 0.9651
1.4087 -6.1079 -1.4732 0.9746
1.8867 -5.7924 -1.4317 0.9753
2.9698 -5.5506 -1.4795 0.9745
5.3584 -6.7954 -2.0339 0.9651
5.9362 -6.2970 -2.0339 0.9651
6.4679 -5.7496 -2.0339 0.9651
6.9493 -5.1576 -2.0339 0.9651
7.7466 -3.8580 -2.0339 0.9651
8.3036 -2.4387 -2.0339 0.9651
8.6027 -0.9436 -2.0340 0.9651
8.6525 -0.1821 -2.0340 0.9651
8.5502 1.3393 -2.0340 0.9651
8.3991 2.0873 -2.0340 0.9651
7.9025 3.5289 -2.0340 0.9651
7.5609 4.2113 -2.0340 0.9651
-6.2493 -4.7586 -2.0338 0.9681
-5.8057 -5.2906 -2.0337 0.9681
-5.3171 -5.7815 -2.0337 0.9681
-4.7871 -6.2274 -2.0337 0.9681
-3.6200 -6.9709 -2.0338 0.9681
-2.3404 -7.4981 -2.0338 0.9681
-1.6708 -7.6751 -2.0338 0.9681
-0.2979 -7.8493 -2.0338 0.9681
1.0842 -7.7798 -2.0338 0.9681
2.5013 -5.8657 -1.6510 0.9740
3.0784 -5.7535 -1.6895 0.9734
4.8639 -6.1683 -2.0339 0.9681
5.3884 -5.7159 -2.0339 0.9681
6.3079 -4.6816 -2.0339 0.9681
7.7030 -1.5410 -2.0339 0.9681
7.8088 -0.8565 -2.0340 0.9681
7.8539 -0.1653 -2.0340 0.9681
7.7611 1.2157 -2.0340 0.9681
7.4274 2.5588 -2.0340 0.9681
7.1731 3.2032 -2.0340 0.9681
6.8630 3.8226 -2.0340 0.9681
-5.3100 -4.8389 -2.0338 0.9706
-4.8631 -5.2878 -2.0338 0.9706
-2.7364 -6.6425 -2.0338 0.9706
-1.5281 -7.0197 -2.0338 0.9706
-0.9039 -7.1271 -2.0338 0.9706
-0.2725 -7.1790 -2.0338 0.9706
1.4333 -6.2144 -1.8054 0.9738
2.8182 -6.6085 -2.0338 0.9706
3.3521 -6.2651 -2.0115 0.9709
3.9342 -6.0114 -2.0338 0.9706
4.4485 -5.6416 -2.0339 0.9706
4.9282 -5.2278 -2.0339 0.9706
5.7692 -4.2818 -2.0339 0.9706
7.0452 -1.4094 -2.0339 0.9706
7.1420 -0.7833 -2.0340 0.9706
7.0983 1.1118 -2.0340 0.9706
6.9728 1.7328 -2.0340 0.9706
6.2769 3.4962 -2.0340 0.9706
-4.0298 -5.2422 -2.0338 0.9727
-3.0473 -5.8681 -2.0338 0.9727
-1.9702 -6.3119 -2.0338 0.9727
-1.4065 -6.4609 -2.0338 0.9727
-0.8319 -6.5597 -2.0338 0.9727
1.4861 -6.4432 -2.0338 0.9727
1.9307 -5.9274 -1.9174 0.9742
2.5938 -6.0825 -2.0338 0.9727
3.1196 -5.8303 -2.0338 0.9727
3.6210 -5.5329 -2.0339 0.9727
4.0943 -5.1924 -2.0339 0.9727
4.5359 -4.8116 -2.0339 0.9727
4.9421 -4.3934 -2.0339 0.9727
5.3100 -3.9409 -2.0339 0.9727
6.1560 -2.4150 -2.0339 0.9727
6.3448 -1.8634 -2.0339 0.9727
6.4843 -1.2972 -2.0339 0.9727
6.5734 -0.7210 -2.0339 0.9727
6.5332 1.0233 -2.0340 0.9727
6.2522 2.1540 -2.0340 0.9727
6.0382 2.6964 -2.0340 0.9727
5.7772 3.2178 -2.0340 0.9727
-5.1754 -3.2635 -2.0338 0.9745
-4.8677 -3.7067 -2.0338 0.9745
-4.1417 -4.5034 -2.0338 0.9745
-3.7289 -4.8508 -2.0338 0.9745
-3.2871 -5.1604 -2.0338 0.9745
-2.8197 -5.4299 -2.0338 0.9745
-2.3304 -5.6572 -2.0338 0.9745
-1.8230 -5.8405 -2.0338 0.9745
-1.3014 -5.9784 -2.0338 0.9745
0.3074 -6.1107 -2.0338 0.9745
1.3751 -5.9620 -2.0338 0.9745
2.8865 -5.3949 -2.0338 0.9745
3.3506 -5.1197 -2.0339 0.9745
3.7886 -4.8046 -2.0339 0.9745
4.5730 -4.0652 -2.0339 0.9745
4.9134 -3.6466 -2.0339 0.9745
5.4771 -2.7277 -2.0339 0.9745
5.6961 -2.2346 -2.0339 0.9745
6.0000 -1.2003 -2.0339 0.9745
6.0824 -0.6671 -2.0339 0.9745
5.9383 1.4757 -2.0340 0.9745
5.3457 2.9775 -2.0340 0.9745
-4.8106 -3.0335 -2.0338 0.9761
-4.5247 -3.4455 -2.0338 0.9761
-3.8498 -4.1861 -2.0338 0.9761
-3.4661 -4.5089 -2.0338 0.9761
-2.6211 -5.0473 -2.0338 0.9761
-1.6945 -5.4289 -2.0338 0.9761
-0.7155 -5.6421 -2.0338 0.9761
-0.2157 -5.6832 -2.0338 0.9761
2.2309 -5.2315 -2.0338 0.9761
2.6832 -5.0147 -2.0338 0.9761
3.1145 -4.7589 -2.0339 0.9761
3.9013 -4.1385 -2.0339 0.9761
4.5671 -3.3896 -2.0339 0.9761
4.8480 -2.9741 -2.0339 0.9761
5.0911 -2.5355 -2.0339 0.9761
5.2947 -2.0772 -2.0339 0.9761
5.6864 -0.1196 -2.0339 0.9761
5.6192 0.8802 -2.0340 0.9761
5.3775 1.8526 -2.0340 0.9761
-3.9227 -3.5746 -2.0338 0.9775
-2.0214 -4.9071 -2.0338 0.9775
0.2667 -5.3005 -2.0338 0.9775
0.7326 -5.2564 -2.0338 0.9775
1.6437 -5.0463 -2.0338 0.9775
2.9064 -4.4408 -2.0339 0.9775
3.6406 -3.8619 -2.0339 0.9775
4.2619 -3.1631 -2.0339 0.9775
4.5239 -2.7754 -2.0339 0.9775
4.7509 -2.3661 -2.0339 0.9775
5.2044 -1.0412 -2.0339 0.9775
5.2436 0.8213 -2.0340 0.9775
5.0182 1.7288 -2.0340 0.9775
4.8463 2.1642 -2.0340 0.9775
-4.2034 -2.6506 -2.0338 0.9788
-3.6729 -3.3471 -2.0338 0.9788
-3.0286 -3.9397 -2.0338 0.9788
-2.2901 -4.4101 -2.0338 0.9788
-1.8928 -4.5947 -2.0338 0.9788
-0.6252 -4.9298 -2.0338 0.9788
0.2497 -4.9630 -2.0338 0.9788
1.1168 -4.8422 -2.0338 0.9788
1.5391 -4.7250 -2.0338 0.9788
1.9493 -4.5711 -2.0338 0.9788
2.3444 -4.3817 -2.0339 0.9788
3.0770 -3.9022 -2.0339 0.9788
3.4088 -3.6160 -2.0339 0.9788
3.7141 -3.3017 -2.0339 0.9788
3.9906 -2.9617 -2.0339 0.9788
4.2360 -2.5987 -2.0339 0.9788
4.6263 -1.8149 -2.0339 0.9788
4.7682 -1.4004 -2.0339 0.9788
4.9400 -0.5418 -2.0339 0.9787
4.6987 1.6187 -2.0340 0.9787
4.5378 2.0264 -2.0340 0.9787
-3.9474 -2.4891 -2.0338 0.9798
-3.7128 -2.8272 -2.0338 0.9798
-3.1589 -3.4349 -2.0338 0.9798
-2.1507 -4.1415 -2.0338 0.9798
-0.5871 -4.6296 -2.0338 0.9798
-0.1770 -4.6633 -2.0338 0.9798
1.4453 -4.4373 -2.0338 0.9798
2.2017 -4.1148 -2.0339 0.9798
3.2012 -3.3958 -2.0339 0.9798
3.7475 -2.7813 -2.0339 0.9798
4.3446 -1.7044 -2.0339 0.9798
4.6391 -0.5088 -2.0339 0.9798
4.6564 0.3132 -2.0339 0.9798
4.4125 1.5202 -2.0340 0.9798
4.2614 1.9030 -2.0340 0.9798
4.0772 2.2710 -2.0340 0.9798
-3.4957 -2.6619 -2.0338 0.9808
-3.2476 -2.9595 -2.0338 0.9808
-2.9743 -3.2340 -2.0338 0.9808
-2.6778 -3.4834 -2.0338 0.9808
-2.3605 -3.7058 -2.0338 0.9808
-2.0249 -3.8993 -2.0338 0.9808
-1.3091 -4.1942 -2.0338 0.9808
-0.1666 -4.3907 -2.0338 0.9808
0.2208 -4.3883 -2.0338 0.9808
1.3608 -4.1778 -2.0338 0.9808
1.7236 -4.0417 -2.0338 0.9808
3.7454 -2.2977 -2.0339 0.9808
3.9332 -1.9588 -2.0339 0.9808
4.0905 -1.6047 -2.0339 0.9808
4.3087 -0.8620 -2.0339 0.9808
4.3679 -0.4791 -2.0339 0.9808
4.3411 0.6800 -2.0339 0.9808
4.2644 1.0597 -2.0339 0.9808
4.0122 1.7917 -2.0340 0.9808
-3.5071 -2.2115 -2.0338 0.9817
-3.2987 -2.5119 -2.0338 0.9817
-2.8067 -3.0518 -2.0338 0.9817
-2.2275 -3.4970 -2.0338 0.9817
-1.2354 -3.9579 -2.0338 0.9817
-0.1573 -4.1433 -2.0338 0.9817
0.2083 -4.1410 -2.0338 0.9817
0.5723 -4.1066 -2.0338 0.9817
0.9318 -4.0402 -2.0338 0.9817
1.6265 -3.8140 -2.0339 0.9817
1.9561 -3.6559 -2.0339 0.9817
2.2706 -3.4694 -2.0339 0.9817
2.5673 -3.2559 -2.0339 0.9817
2.8442 -3.0171 -2.0339 0.9817
3.0989 -2.7548 -2.0339 0.9817
3.3296 -2.4711 -2.0339 0.9817
3.5343 -2.1682 -2.0339 0.9817
3.9784 -1.1684 -2.0339 0.9817
4.1218 -0.4521 -2.0339 0.9817
4.1371 0.2783 -2.0339 0.9817
4.0965 0.6416 -2.0339 0.9817
4.0241 1.0000 -2.0339 0.9817
3.7861 1.6907 -2.0339 0.9817
-3.1190 -2.3751 -2.0338 0.9825
-2.8977 -2.6406 -2.0338 0.9825
-2.6538 -2.8856 -2.0338 0.9825
-2.1062 -3.3065 -2.0338 0.9825
-1.8068 -3.4792 -2.0338 0.9825
-1.4932 -3.6249 -2.0338 0.9825
-0.8339 -3.8307 -2.0338 0.9825
-0.4932 -3.8893 -2.0338 0.9825
0.5411 -3.8829 -2.0338 0.9825
1.2142 -3.7277 -2.0338 0.9825
1.5379 -3.6062 -2.0339 0.9825
2.4275 -3.0786 -2.0339 0.9825
2.6893 -2.8527 -2.0339 0.9825
2.9301 -2.6048 -2.0339 0.9825
3.1482 -2.3365 -2.0339 0.9825
3.3418 -2.0502 -2.0339 0.9825
3.7617 -1.1048 -2.0339 0.9825
2.0808 -0.2282 -1.0860 0.9906
2.0991 0.3288 -1.1022 0.9905
3.7068 1.2771 -2.0339 0.9825
3.5800 1.5986 -2.0339 0.9825
3.4252 1.9078 -2.0339 0.9825
-3.1410 -1.9807 -2.0338 0.9832
-2.9543 -2.2497 -2.0338 0.9832
-2.7447 -2.5012 -2.0338 0.9832
-2.5137 -2.7332 -2.0338 0.9832
-2.2631 -2.9440 -2.0338 0.9832
-1.9950 -3.1320 -2.0338 0.9832
-1.7113 -3.2955 -2.0338 0.9832
-1.4144 -3.4335 -2.0338 0.9832
-1.1064 -3.5447 -2.0338 0.9832
-0.1408 -3.7107 -2.0338 0.9832
0.5126 -3.6779 -2.0338 0.9832
1.7518 -3.2743 -2.0339 0.9832
2.0335 -3.1072 -2.0339 0.9832
2.7754 -2.4672 -2.0339 0.9832
2.9820 -2.2132 -2.0339 0.9832
3.4570 -1.3562 -2.0339 0.9832
1.8722 -0.5498 -1.0687 0.9911
1.8477 -0.2027 -1.0181 0.9916
1.8519 -0.0390 -1.0145 0.9916
1.8522 0.1246 -1.0168 0.9916
1.8496 0.2897 -1.0254 0.9915
1.8573 0.4615 -1.0482 0.9913
3.3908 1.5142 -2.0339 0.9832
3.2443 1.8070 -2.0339 0.9832
-2.9797 -1.8789 -2.0338 0.9839
-2.8026 -2.1341 -2.0338 0.9839
-1.6235 -3.1263 -2.0338 0.9839
-1.3417 -3.2571 -2.0338 0.9839
-1.0496 -3.3627 -2.0338 0.9839
-0.7493 -3.4421 -2.0338 0.9839
0.1771 -3.5183 -2.0338 0.9839
0.4862 -3.4890 -2.0338 0.9839
1.0910 -3.3496 -2.0339 0.9839
3.0028 -1.8421 -2.0339 0.9839
3.1534 -1.5705 -2.0339 0.9839
1.7150 -0.5037 -1.0320 0.9918
1.7143 -0.3430 -1.0094 0.9920
1.7187 -0.1885 -0.9982 0.9920
1.7246 -0.0363 -0.9959 0.9921
1.7230 0.1159 -0.9970 0.9921
1.7141 0.2685 -1.0017 0.9920
1.7141 0.4260 -1.0197 0.9919
3.0777 1.7142 -2.0339 0.9839
