ply
format ascii 1.0
element vertex 226
property float32 x
property float32 y
property float32 z
property float32 I
end_header
17.3680 -3.2667 -1.2958 0.9316
14.8144 8.7574 -1.6522 0.9332
13.1923 9.4951 -1.5605 0.9368
12.8066 -11.3633 -2.0337 0.9334
13.7759 -10.1668 -2.0338 0.9334
14.6339 -8.8880 -2.0338 0.9334
16.4746 -4.6641 -2.0339 0.9334
16.8271 -3.1650 -2.0339 0.9334
17.0436 -1.6402 -2.0339 0.9334
17.0623 1.4368 -2.0339 0.9334
15.4636 7.3539 -2.0340 0.9334
9.4846 14.2565 -2.0340 0.9334
8.1652 15.0510 -2.0340 0.9334
10.7364 -9.5266 -2.0338 0.9437
12.2684 -7.4512 -2.0338 0.9437
12.8884 -6.3188 -2.0338 0.9437
13.4041 -5.1352 -2.0338 0.9437
14.1070 -2.6533 -2.0339 0.9437
14.2885 -1.3751 -2.0339 0.9437
13.8577 3.7452 -2.0339 0.9437
13.4652 4.9753 -2.0339 0.9437
10.8505 9.3987 -2.0340 0.9437
9.9620 10.3357 -2.0340 0.9437
8.9930 11.1890 -2.0340 0.9437
7.9513 11.9518 -2.0340 0.9437
9.2342 -8.1936 -2.0338 0.9512
9.9332 -7.3308 -2.0338 0.9512
11.0850 -5.4347 -2.0338 0.9512
11.5286 -4.4167 -2.0338 0.9512
12.2891 -1.1827 -2.0339 0.9512
12.3458 -0.0736 -2.0339 0.9512
12.3026 1.0360 -2.0339 0.9512
10.0207 7.2124 -2.0339 0.9512
8.5681 8.8894 -2.0339 0.9512
7.7347 9.6233 -2.0339 0.9512
5.8874 10.8522 -2.0339 0.9512
7.4154 -7.8794 -2.0337 0.9569
8.0934 -7.1813 -2.0338 0.9569
10.1043 -3.8710 -2.0338 0.9569
10.6341 -2.0001 -2.0338 0.9569
10.7709 -1.0365 -2.0338 0.9569
10.8205 -0.0646 -2.0339 0.9569
10.7826 0.9080 -2.0339 0.9569
10.6574 1.8732 -2.0339 0.9569
10.1502 3.7504 -2.0339 0.9569
9.7721 4.6472 -2.0339 0.9569
9.3150 5.5065 -2.0339 0.9569
8.1791 7.0848 -2.0339 0.9569
7.5095 7.7911 -2.0339 0.9569
5.9938 9.0093 -2.0339 0.9569
5.1600 9.5114 -2.0339 0.9569
6.5938 -7.0065 -2.0337 0.9614
7.1967 -6.3857 -2.0338 0.9614
8.6391 -4.2355 -2.0338 0.9614
8.9848 -3.4421 -2.0338 0.9614
9.2578 -2.6209 -2.0338 0.9614
9.5775 -0.9217 -2.0338 0.9614
9.6216 -0.0574 -2.0338 0.9614
9.2886 2.5104 -2.0339 0.9614
9.0255 3.3348 -2.0339 0.9614
8.2830 4.8964 -2.0339 0.9614
7.2729 6.2998 -2.0339 0.9614
6.6774 6.9278 -2.0339 0.9614
6.0279 7.4998 -2.0339 0.9614
4.5882 8.4575 -2.0339 0.9614
5.9305 -6.3016 -2.0337 0.9651
6.4727 -5.7433 -2.0338 0.9651
7.7700 -3.8094 -2.0338 0.9651
8.5046 -1.5996 -2.0338 0.9651
8.6139 -0.8290 -2.0338 0.9651
8.6233 0.7262 -2.0338 0.9651
8.5232 1.4980 -2.0339 0.9651
8.1175 2.9994 -2.0339 0.9651
7.4496 4.4038 -2.0339 0.9651
5.4214 6.7453 -2.0339 0.9651
4.7935 7.2051 -2.0339 0.9651
5.8754 -5.2133 -2.0338 0.9681
7.5580 -2.1397 -2.0338 0.9681
7.7197 -1.4520 -2.0338 0.9681
7.8189 -0.7525 -2.0338 0.9681
7.8275 0.6591 -2.0338 0.9681
7.7366 1.3598 -2.0338 0.9681
7.3683 2.7225 -2.0339 0.9681
7.0939 3.3736 -2.0339 0.9681
6.3755 4.5888 -2.0339 0.9681
4.9211 6.1227 -2.0339 0.9681
3.7458 6.9046 -2.0339 0.9681
4.9235 -5.2316 -2.0337 0.9706
5.7804 -4.2660 -2.0338 0.9706
6.9125 -1.9570 -2.0338 0.9706
7.0605 -1.3280 -2.0338 0.9706
7.1512 -0.6882 -2.0338 0.9706
7.1590 0.6028 -2.0338 0.9706
7.0759 1.2436 -2.0338 0.9706
6.7391 2.4900 -2.0338 0.9706
6.4881 3.0855 -2.0338 0.9706
5.4304 4.7039 -2.0339 0.9706
4.9858 5.1728 -2.0339 0.9706
4.5009 5.5999 -2.0339 0.9706
3.4259 6.3150 -2.0339 0.9706
4.5315 -4.8152 -2.0337 0.9727
5.3202 -3.9264 -2.0338 0.9727
5.9371 -2.9108 -2.0338 0.9727
6.1746 -2.3656 -2.0338 0.9727
6.3622 -1.8012 -2.0338 0.9727
6.6123 -0.0395 -2.0338 0.9727
6.5891 0.5548 -2.0338 0.9727
6.5126 1.1446 -2.0338 0.9727
6.2026 2.2918 -2.0338 0.9727
5.9716 2.8398 -2.0338 0.9727
3.6627 5.5054 -2.0338 0.9727
4.9229 -3.6331 -2.0338 0.9745
5.2294 -3.1761 -2.0338 0.9745
5.4937 -2.6934 -2.0338 0.9745
5.7134 -2.1889 -2.0338 0.9745
6.0130 -1.1310 -2.0338 0.9745
6.0904 -0.5861 -2.0338 0.9745
6.1184 -0.0365 -2.0338 0.9745
6.0261 1.0591 -2.0338 0.9745
5.7393 2.1206 -2.0338 0.9745
5.5255 2.6277 -2.0338 0.9745
5.2671 3.1136 -2.0338 0.9745
4.2461 4.4054 -2.0338 0.9745
3.3891 5.0942 -2.0338 0.9745
2.9176 5.3781 -2.0338 0.9745
4.2539 -3.7746 -2.0338 0.9761
4.8609 -2.9523 -2.0338 0.9761
5.3108 -2.0346 -2.0338 0.9761
5.4721 -1.5492 -2.0338 0.9761
5.6611 -0.5448 -2.0338 0.9761
5.3348 1.9711 -2.0338 0.9761
5.1361 2.4425 -2.0338 0.9761
4.2988 3.7237 -2.0338 0.9761
3.5630 4.4330 -2.0338 0.9761
3.6371 -3.8647 -2.0337 0.9775
3.9697 -3.5223 -2.0338 0.9775
4.7652 -2.3363 -2.0338 0.9775
5.2828 -0.5084 -2.0338 0.9775
4.9782 1.8394 -2.0338 0.9775
4.7928 2.2793 -2.0338 0.9775
3.6831 3.8212 -2.0338 0.9775
3.3249 4.1367 -2.0338 0.9775
2.5307 4.6650 -2.0338 0.9775
3.4055 -3.6187 -2.0337 0.9788
3.7169 -3.2981 -2.0338 0.9788
4.2472 -2.5796 -2.0338 0.9788
4.4619 -2.1875 -2.0338 0.9788
4.6404 -1.7778 -2.0338 0.9788
4.7814 -1.3536 -2.0338 0.9788
4.8836 -0.9186 -2.0338 0.9788
4.8943 0.8602 -2.0338 0.9788
4.2778 2.5288 -2.0338 0.9788
4.0333 2.9029 -2.0338 0.9788
3.7561 3.2536 -2.0338 0.9788
3.9886 -2.4225 -2.0338 0.9798
4.3577 -1.6695 -2.0338 0.9798
4.4902 -1.2712 -2.0338 0.9798
4.6452 -0.4471 -2.0338 0.9798
4.6666 -0.0279 -2.0338 0.9798
4.6502 0.3916 -2.0338 0.9798
4.5050 1.2175 -2.0338 0.9798
3.7876 2.7261 -2.0338 0.9798
3.5273 3.0554 -2.0338 0.9798
2.9236 3.6374 -2.0338 0.9798
2.2254 4.1019 -2.0338 0.9798
3.0111 -3.1996 -2.0337 0.9808
3.2865 -2.9161 -2.0338 0.9808
3.7553 -2.2808 -2.0338 0.9808
3.9451 -1.9342 -2.0338 0.9808
4.1029 -1.5719 -2.0338 0.9808
4.2275 -1.1969 -2.0338 0.9808
4.3180 -0.8122 -2.0338 0.9808
4.3274 0.7606 -2.0338 0.9808
4.2416 1.1463 -2.0338 0.9808
3.7823 2.2359 -2.0338 0.9808
3.0492 3.1635 -2.0338 0.9808
2.7526 3.4247 -2.0338 0.9808
2.0952 3.8621 -2.0338 0.9808
3.1013 -2.7518 -2.0338 0.9817
3.3360 -2.4620 -2.0338 0.9817
3.5437 -2.1523 -2.0338 0.9817
4.1461 -0.0247 -2.0338 0.9817
4.1316 0.3479 -2.0338 0.9817
3.8892 1.4370 -2.0338 0.9817
3.7444 1.7807 -2.0338 0.9817
3.5692 2.1099 -2.0338 0.9817
3.1340 2.7146 -2.0338 0.9817
2.8774 2.9853 -2.0338 0.9817
2.2966 3.4520 -2.0338 0.9817
2.6867 -2.8548 -2.0337 0.9825
3.3507 -2.0351 -2.0338 0.9825
3.5200 -1.7258 -2.0338 0.9825
3.6609 -1.4025 -2.0338 0.9825
2.1050 -0.3959 -1.1112 0.9904
2.1033 0.3696 -1.1079 0.9904
3.7846 1.0228 -2.0338 0.9825
3.6774 1.3587 -2.0338 0.9825
3.1819 2.2902 -2.0338 0.9825
2.9633 2.5668 -2.0338 0.9825
2.7207 2.8227 -2.0338 0.9825
2.1715 3.2640 -2.0338 0.9825
2.7775 -2.4645 -2.0338 0.9832
2.9877 -2.2050 -2.0338 0.9832
3.3341 -1.6346 -2.0338 0.9832
3.4675 -1.3285 -2.0338 0.9832
1.8680 -0.5289 -1.0633 0.9912
1.8548 -0.3489 -1.0337 0.9914
1.8496 -0.1780 -1.0177 0.9916
1.8507 -0.0111 -1.0136 0.9916
1.8531 0.3257 -1.0305 0.9915
3.4832 1.2870 -2.0338 0.9832
3.3534 1.5948 -2.0338 0.9832
2.8068 2.4312 -2.0338 0.9832
2.0568 3.0916 -2.0338 0.9832
1.7707 3.2639 -2.0338 0.9832
2.6349 -2.3380 -2.0338 0.9839
2.8343 -2.0917 -2.0338 0.9839
3.0108 -1.8286 -2.0338 0.9839
3.1630 -1.5507 -2.0338 0.9839
1.7137 -0.3223 -1.0067 0.9920
1.7123 0.4627 -1.0240 0.9918
3.0324 1.7926 -2.0338 0.9839
2.8591 2.0578 -2.0338 0.9839
2.6627 2.3064 -2.0338 0.9839
1.9512 2.9329 -2.0338 0.9839
1.6798 3.0963 -2.0338 0.9839
