ply
format ascii 1.0
element vertex 243
property float32 x
property float32 y
property float32 z
property float32 I
end_header
-11.4745 13.4415 2.7074 0.9310
-11.2366 13.1629 2.2537 0.9326
-12.0709 11.8632 1.8174 0.9342
-11.4830 13.4516 1.4972 0.9315
-12.5496 12.3336 1.4895 0.9318
-12.7987 12.5785 1.1128 0.9306
-12.4809 14.6204 0.7580 0.9259
-16.1796 5.7124 -1.2581 0.9335
-16.0174 5.6552 -1.6308 0.9340
-2.0377 7.3830 -0.9098 0.9696
-8.6804 14.7580 -2.0338 0.9334
-9.9363 13.9433 -2.0338 0.9334
-11.1162 13.0219 -2.0338 0.9334
-12.2111 12.0010 -2.0338 0.9334
-14.1133 9.6926 -2.0337 0.9334
-15.5846 7.0884 -2.0337 0.9334
-16.1442 5.6999 -2.0337 0.9334
-16.5803 4.2679 -2.0337 0.9334
-16.8896 2.8033 -2.0337 0.9334
-17.0698 1.3172 -2.0337 0.9334
-16.8271 -3.1556 -2.0337 0.9334
-15.4324 -7.4123 -2.0336 0.9334
-5.0130 13.4502 -2.0338 0.9437
-6.1687 12.9608 -2.0338 0.9437
-8.3301 11.6894 -2.0338 0.9437
-11.0770 9.1284 -2.0338 0.9437
-11.8320 8.1259 -2.0337 0.9437
-12.4965 7.0612 -2.0337 0.9437
-14.3107 1.1043 -2.0337 0.9437
-14.3524 -0.1500 -2.0337 0.9437
-14.2844 -1.4031 -2.0337 0.9437
-14.1071 -2.6455 -2.0337 0.9437
-12.3457 -7.3206 -2.0337 0.9437
-6.2590 10.6412 -2.0338 0.9512
-7.1646 10.0538 -2.0338 0.9512
-8.0154 9.3895 -2.0338 0.9512
-8.8049 8.6534 -2.0338 0.9512
-11.2374 5.1112 -2.0337 0.9512
-11.9554 3.0774 -2.0337 0.9512
-12.3084 0.9498 -2.0337 0.9512
-12.3443 -0.1290 -2.0337 0.9512
-12.2858 -1.2068 -2.0337 0.9512
-12.1334 -2.2754 -2.0337 0.9512
-11.8882 -3.3266 -2.0337 0.9512
-3.7789 10.1390 -2.0338 0.9569
-5.4857 9.3265 -2.0338 0.9569
-7.0251 8.2294 -2.0338 0.9569
-7.7171 7.5843 -2.0338 0.9569
-8.3501 6.8812 -2.0338 0.9569
-9.4202 5.3229 -2.0337 0.9569
-10.4784 2.6972 -2.0337 0.9569
-10.7878 0.8324 -2.0337 0.9569
-10.8193 -0.1131 -2.0337 0.9569
-10.4195 -2.9156 -2.0337 0.9569
-10.1250 -3.8146 -2.0337 0.9569
-9.7530 -4.6844 -2.0337 0.9569
-3.3602 9.0157 -2.0338 0.9614
-4.8780 8.2932 -2.0338 0.9614
-6.2468 7.3177 -2.0338 0.9614
-6.8621 6.7441 -2.0338 0.9614
-7.9311 5.4469 -2.0338 0.9614
-9.6206 -0.1005 -2.0337 0.9614
-9.5750 -0.9405 -2.0337 0.9614
-9.4562 -1.7733 -2.0337 0.9614
-9.2652 -2.5926 -2.0337 0.9614
-9.0033 -3.3920 -2.0337 0.9614
-8.2755 -4.9071 -2.0337 0.9614
-2.0166 7.3063 -1.7814 0.9693
-3.0222 8.1087 -2.0338 0.9651
-5.6184 6.5815 -2.0338 0.9651
-6.1718 6.0656 -2.0338 0.9651
-7.1332 4.8989 -2.0338 0.9651
-7.5338 4.2571 -2.0337 0.9651
-8.1597 2.8809 -2.0337 0.9651
-8.3802 2.1571 -2.0337 0.9651
-8.6276 0.6658 -2.0337 0.9651
-8.6118 -0.8459 -2.0337 0.9651
-8.0976 -3.0508 -2.0337 0.9651
-7.8001 -3.7464 -2.0337 0.9651
-5.0999 5.9741 -2.0338 0.9681
-5.6022 5.5058 -2.0338 0.9681
-6.4749 4.4468 -2.0338 0.9681
-6.8386 3.8642 -2.0337 0.9681
-7.1500 3.2521 -2.0337 0.9681
-7.4067 2.6151 -2.0337 0.9681
-7.6068 1.9581 -2.0337 0.9681
-7.7487 1.2861 -2.0337 0.9681
-7.8314 0.6043 -2.0337 0.9681
-7.8543 -0.0821 -2.0337 0.9681
-7.8171 -0.7679 -2.0337 0.9681
-7.5641 -2.1166 -2.0337 0.9681
-7.3503 -2.7692 -2.0337 0.9681
-6.7562 -4.0062 -2.0337 0.9681
-2.5090 6.7318 -2.0338 0.9706
-3.0874 6.4869 -2.0338 0.9706
-4.6644 5.4640 -2.0338 0.9706
-5.1238 5.0356 -2.0338 0.9706
-5.5441 4.5688 -2.0338 0.9706
-6.2546 3.5342 -2.0337 0.9706
-6.5394 2.9744 -2.0337 0.9706
-6.9571 1.7909 -2.0337 0.9706
-7.1836 -0.0750 -2.0337 0.9706
-7.1495 -0.7023 -2.0337 0.9706
-7.0608 -1.3241 -2.0337 0.9706
-6.9182 -1.9358 -2.0337 0.9706
-6.4757 -3.1103 -2.0337 0.9706
-1.7592 6.3739 -2.0338 0.9727
-2.3093 6.1959 -2.0338 0.9727
-2.8417 5.9705 -2.0338 0.9727
-4.7159 4.6348 -2.0338 0.9727
-5.4505 3.7433 -2.0338 0.9727
-5.7567 3.2529 -2.0337 0.9727
-6.0188 2.7375 -2.0337 0.9727
-6.2349 2.2013 -2.0337 0.9727
-6.4034 1.6483 -2.0337 0.9727
-6.5229 1.0827 -2.0337 0.9727
-6.5925 0.5087 -2.0337 0.9727
-6.4987 -1.2187 -2.0337 0.9727
-5.9602 -2.8627 -2.0337 0.9727
-5.6873 -3.3724 -2.0337 0.9727
-1.6278 5.8979 -2.0338 0.9745
-2.1368 5.7331 -2.0338 0.9745
-2.6294 5.5246 -2.0338 0.9745
-3.1019 5.2737 -2.0338 0.9745
-3.5507 4.9826 -2.0338 0.9745
-5.0434 3.4637 -2.0338 0.9745
-5.3267 3.0099 -2.0338 0.9745
-5.5693 2.5331 -2.0337 0.9745
-5.7692 2.0369 -2.0337 0.9745
-5.9251 1.5252 -2.0337 0.9745
-6.0357 1.0018 -2.0337 0.9745
-6.1001 0.4707 -2.0337 0.9745
-6.1179 -0.0639 -2.0337 0.9745
-6.0889 -0.5981 -2.0337 0.9745
-1.5131 5.4822 -2.0338 0.9761
-1.9862 5.3291 -2.0338 0.9761
-2.8833 4.9021 -2.0338 0.9761
-3.3005 4.6314 -2.0338 0.9761
-3.6925 4.3255 -2.0338 0.9761
-4.0562 3.9864 -2.0338 0.9761
-5.1768 2.3546 -2.0337 0.9761
-5.6104 0.9312 -2.0337 0.9761
-5.6598 -0.5560 -2.0337 0.9761
-5.5896 -1.0482 -2.0337 0.9761
-5.4767 -1.5325 -2.0337 0.9761
-4.8917 -2.9006 -2.0337 0.9761
-2.2808 4.7920 -2.0338 0.9775
-2.6906 4.5745 -2.0338 0.9775
-3.0799 4.3219 -2.0338 0.9775
-3.7851 3.7199 -2.0338 0.9775
-4.0955 3.3751 -2.0338 0.9775
-4.3747 3.0044 -2.0338 0.9775
-4.6204 2.6108 -2.0338 0.9775
-5.1395 1.3229 -2.0337 0.9775
-5.2912 0.4083 -2.0337 0.9775
-5.3067 -0.0555 -2.0337 0.9775
-5.2816 -0.5188 -2.0337 0.9775
-5.2161 -0.9782 -2.0337 0.9775
-4.9662 -1.8710 -2.0337 0.9775
-4.7838 -2.2977 -2.0337 0.9775
-4.5648 -2.7068 -2.0337 0.9775
-2.5193 4.2832 -2.0338 0.9788
-2.8838 4.0468 -2.0338 0.9788
-3.5441 3.4831 -2.0338 0.9788
-3.8348 3.1602 -2.0338 0.9788
-4.0962 2.8131 -2.0338 0.9788
-4.6857 1.6543 -2.0337 0.9788
-2.1170 0.3514 -0.8783 0.9908
-2.1220 -0.0222 -0.8685 0.9909
-2.1148 -0.2077 -0.8697 0.9909
-2.1206 -0.3977 -0.8830 0.9907
-4.4792 -2.1514 -2.0337 0.9788
-4.2741 -2.5344 -2.0337 0.9788
-1.2416 4.4984 -2.0338 0.9798
-2.0055 4.2137 -2.0338 0.9798
-3.3282 3.2710 -2.0338 0.9798
-3.8467 2.6418 -2.0338 0.9798
-4.2478 1.9320 -2.0337 0.9798
-1.9051 -0.3573 -0.8448 0.9916
-4.0139 -2.3801 -2.0337 0.9798
-1.1690 4.2354 -2.0338 0.9808
-1.8882 3.9672 -2.0338 0.9808
-2.2275 3.7872 -2.0338 0.9808
-2.8526 3.3417 -2.0338 0.9808
-3.6218 2.4873 -2.0338 0.9808
-3.9994 1.8191 -2.0338 0.9808
-1.8018 0.6361 -0.8845 0.9916
-1.6066 -0.1578 -0.7472 0.9929
-1.6054 -0.3011 -0.7561 0.9928
-4.1115 -1.5490 -2.0337 0.9808
-3.9604 -1.9022 -2.0337 0.9808
-1.1031 3.9967 -2.0338 0.9817
-1.4480 3.8851 -2.0338 0.9817
-2.4062 3.3765 -2.0338 0.9817
-2.6919 3.1534 -2.0338 0.9817
-2.9571 2.9062 -2.0338 0.9817
-3.1996 2.6368 -2.0338 0.9817
-3.4177 2.3472 -2.0338 0.9817
-1.2693 0.4481 -0.6603 0.9940
-1.3527 0.1044 -0.6655 0.9940
-1.3389 -0.0140 -0.6568 0.9941
-1.3535 -0.1329 -0.6671 0.9940
-1.3378 -0.2509 -0.6677 0.9940
-1.3048 -0.3651 -0.6646 0.9940
-1.0430 3.7790 -2.0338 0.9825
-1.6847 3.5398 -2.0338 0.9825
-2.2751 3.1926 -2.0338 0.9825
-2.5453 2.9816 -2.0338 0.9825
-2.7960 2.7479 -2.0338 0.9825
-3.0254 2.4932 -2.0338 0.9825
-3.2316 2.2193 -2.0338 0.9825
-1.1498 0.5229 -0.6553 0.9943
-1.1343 0.4005 -0.6241 0.9946
-1.1640 0.2996 -0.6236 0.9946
-1.1904 0.1976 -0.6260 0.9946
-1.1937 -0.0125 -0.6193 0.9946
-1.1843 -0.2221 -0.6251 0.9946
-1.1566 -0.3236 -0.6230 0.9946
-1.2968 3.4795 -2.0338 0.9832
-1.8826 3.2006 -2.0338 0.9832
-2.1550 3.0240 -2.0338 0.9832
-2.4109 2.8242 -2.0338 0.9832
-3.0609 2.1021 -2.0338 0.9832
-3.2328 1.8268 -2.0338 0.9832
-0.9961 0.4531 -0.5994 0.9950
-1.0254 0.3620 -0.5956 0.9951
-1.0427 0.2684 -0.5897 0.9951
-1.0794 -0.1060 -0.5940 0.9951
-1.0384 -0.2906 -0.5906 0.9951
-1.0196 -0.3841 -0.5967 0.9950
-1.5139 3.1807 -2.0338 0.9839
-1.7859 3.0363 -2.0338 0.9839
-2.0443 2.8687 -2.0338 0.9839
-2.2871 2.6792 -2.0338 0.9839
-2.9037 1.9942 -2.0338 0.9839
-0.9245 0.4205 -0.5863 0.9953
-0.9478 0.3346 -0.5803 0.9954
-0.9807 0.1628 -0.5739 0.9954
-0.9893 0.0763 -0.5729 0.9954
-0.9881 -0.0971 -0.5732 0.9954
-0.9586 -0.2682 -0.5747 0.9954
-0.9432 -0.3554 -0.5819 0.9954
-0.9177 -0.4408 -0.5878 0.9953
