ply
format ascii 1.0
element vertex 189
property float32 x
property float32 y
property float32 z
property float32 I
end_header
-11.5951 13.4184 2.7168 0.9308
-12.1864 11.7543 2.5938 0.9338
-11.9995 11.5740 2.1710 0.9350
-11.2123 12.9753 1.8414 0.9333
-11.5835 13.4049 1.4997 0.9314
-12.6262 12.1785 1.4850 0.9320
-12.5555 14.5298 1.1908 0.9259
-13.0398 12.5775 1.1235 0.9300
-12.4491 14.4066 0.7508 0.9266
-16.4913 5.3431 -0.8791 0.9329
-16.3130 5.2854 -1.2573 0.9335
-1.3431 7.9284 -0.7720 0.9682
-1.2716 7.5063 -0.9043 0.9698
-13.3510 10.7205 -2.0339 0.9334
-14.2680 9.4655 -2.0339 0.9334
-15.7426 6.7326 -2.0338 0.9334
-16.2881 5.2773 -2.0338 0.9334
-16.6994 3.7786 -2.0338 0.9334
-17.1069 0.7003 -2.0338 0.9334
-1.2600 7.4377 -1.0689 0.9700
-1.9370 7.3222 -1.0732 0.9699
-4.9146 13.4879 -2.0340 0.9437
-6.1173 12.9866 -2.0340 0.9437
-8.3622 11.6679 -2.0340 0.9437
-10.3319 9.9656 -2.0339 0.9437
-11.1929 8.9875 -2.0339 0.9437
-11.9617 7.9354 -2.0339 0.9437
-13.1980 5.6444 -2.0339 0.9437
-13.6554 4.4243 -2.0338 0.9437
-14.0001 3.1678 -2.0338 0.9437
-14.2296 1.8852 -2.0338 0.9437
-14.3418 0.5870 -2.0338 0.9437
-14.3359 -0.7159 -2.0338 0.9437
-1.2335 7.2814 -1.2166 0.9705
-4.2269 11.6007 -2.0340 0.9512
-5.2614 11.1695 -2.0340 0.9512
-6.2525 10.6463 -2.0340 0.9512
-8.8863 8.5712 -2.0339 0.9512
-9.6268 7.7300 -2.0339 0.9512
-10.8645 5.8640 -2.0339 0.9512
-11.7448 3.8053 -2.0338 0.9512
-12.2387 1.6214 -2.0338 0.9512
-12.3352 0.5049 -2.0338 0.9512
-3.7046 10.1674 -2.0340 0.9569
-4.6113 9.7895 -2.0340 0.9569
-5.4801 9.3310 -2.0340 0.9569
-7.0752 8.1876 -2.0339 0.9569
-7.7884 7.5123 -2.0339 0.9569
-8.4375 6.7750 -2.0339 0.9569
-10.5537 2.3880 -2.0338 0.9569
-10.8114 0.4425 -2.0338 0.9569
-10.8069 -0.5396 -2.0338 0.9569
-1.2051 7.1137 -1.5251 0.9709
-6.2913 7.2805 -2.0339 0.9614
-7.5027 6.0244 -2.0339 0.9614
-8.8468 3.7835 -2.0339 0.9614
-9.1533 2.9657 -2.0339 0.9614
-9.3845 2.1234 -2.0338 0.9614
-9.5383 1.2637 -2.0338 0.9614
-9.6136 0.3935 -2.0338 0.9614
-9.6096 -0.4799 -2.0338 0.9614
-1.9186 7.2523 -1.7631 0.9696
-2.9628 8.1314 -2.0340 0.9651
-3.6879 7.8291 -2.0340 0.9651
-5.6584 6.5481 -2.0339 0.9651
-6.2288 6.0079 -2.0339 0.9651
-7.2114 4.7841 -2.0339 0.9651
-7.9568 3.4029 -2.0339 0.9651
-1.3121 7.7453 -2.0340 0.9681
-2.0090 7.5944 -2.0340 0.9681
-2.6894 7.3809 -2.0340 0.9681
-3.3476 7.1066 -2.0340 0.9681
-3.9782 6.7737 -2.0339 0.9681
-4.5760 6.3851 -2.0339 0.9681
-5.1362 5.9437 -2.0339 0.9681
-6.9127 3.7311 -2.0339 0.9681
-7.2225 3.0888 -2.0339 0.9681
-7.6615 1.7335 -2.0339 0.9681
-7.7871 1.0317 -2.0338 0.9681
-7.8453 -0.3918 -2.0338 0.9681
-1.2000 7.0839 -2.0340 0.9706
-2.4597 6.7506 -2.0340 0.9706
-3.6385 6.1953 -2.0339 0.9706
-4.6976 5.4362 -2.0339 0.9706
-5.1711 4.9878 -2.0339 0.9706
-5.6021 4.4983 -2.0339 0.9706
-6.3223 3.4125 -2.0339 0.9706
-7.0073 1.5855 -2.0339 0.9706
-7.1784 0.2938 -2.0338 0.9706
-1.6911 6.3929 -2.0340 0.9727
-2.2639 6.2132 -2.0340 0.9727
-2.8179 5.9823 -2.0339 0.9727
-3.3488 5.7021 -2.0339 0.9727
-3.8521 5.3749 -2.0339 0.9727
-4.3236 5.0034 -2.0339 0.9727
-5.1561 4.1402 -2.0339 0.9727
-5.5103 3.6556 -2.0339 0.9727
-6.0799 2.6002 -2.0339 0.9727
-6.2906 2.0381 -2.0339 0.9727
-6.6042 -0.3298 -2.0338 0.9727
-1.0220 6.0329 -2.0340 0.9745
-1.5648 5.9154 -2.0340 0.9745
-2.0948 5.7491 -2.0339 0.9745
-4.0007 4.6297 -2.0339 0.9745
-5.6257 2.4060 -2.0339 0.9745
-5.9678 1.3503 -2.0339 0.9745
-6.1135 0.2502 -2.0339 0.9745
-6.1109 -0.3052 -2.0338 0.9745
-0.9500 5.6078 -2.0340 0.9761
-1.4545 5.4985 -2.0339 0.9761
-2.8803 4.9044 -2.0339 0.9761
-3.7187 4.3035 -2.0339 0.9761
-4.4348 3.5610 -2.0339 0.9761
-4.7394 3.1442 -2.0339 0.9761
-5.0050 2.7014 -2.0339 0.9761
-5.4105 1.7530 -2.0339 0.9761
-5.6827 0.2326 -2.0339 0.9761
-0.8865 5.2330 -2.0340 0.9775
-1.3573 5.1310 -2.0339 0.9775
-1.8170 4.9868 -2.0339 0.9775
-2.2618 4.8014 -2.0339 0.9775
-3.4702 4.0158 -2.0339 0.9775
-4.1384 3.3230 -2.0339 0.9775
-4.4227 2.9340 -2.0339 0.9775
-4.6705 2.5209 -2.0339 0.9775
-5.0489 1.6358 -2.0339 0.9775
-5.1765 1.1712 -2.0339 0.9775
-5.2613 0.6970 -2.0339 0.9775
-0.8300 4.8998 -2.0339 0.9788
-1.2709 4.8044 -2.0339 0.9788
-3.8749 3.1114 -2.0339 0.9788
-4.1411 2.7472 -2.0339 0.9788
-4.3731 2.3604 -2.0339 0.9788
-4.5692 1.9541 -2.0339 0.9788
-4.7275 1.5317 -2.0339 0.9788
-2.1084 0.2793 -0.8704 0.9909
-0.7795 4.6014 -2.0339 0.9798
-1.1935 4.5118 -2.0339 0.9798
-1.5977 4.3849 -2.0339 0.9798
-1.9888 4.2220 -2.0339 0.9798
-2.7186 3.7934 -2.0339 0.9798
-3.3590 3.2399 -2.0339 0.9798
-3.8889 2.5799 -2.0339 0.9798
-1.9180 -0.0958 -0.8370 0.9917
-1.1237 4.2479 -2.0339 0.9808
-1.5043 4.1285 -2.0339 0.9808
-1.8725 3.9751 -2.0339 0.9808
-2.2252 3.7889 -2.0339 0.9808
-2.5596 3.5715 -2.0339 0.9808
-3.1625 3.0504 -2.0339 0.9808
-3.6615 2.4290 -2.0339 0.9808
-3.8667 2.0870 -2.0339 0.9808
-4.0400 1.7278 -2.0339 0.9808
-1.6210 0.5252 -0.7887 0.9925
-1.5924 -0.0796 -0.7380 0.9930
-2.0998 3.5754 -2.0339 0.9817
-2.4154 3.3703 -2.0339 0.9817
-2.9844 2.8785 -2.0339 0.9817
-3.4552 2.2922 -2.0339 0.9817
-3.6488 1.9694 -2.0339 0.9817
-1.3511 0.1790 -0.6685 0.9939
-1.3473 0.0551 -0.6615 0.9940
-1.3492 -0.0674 -0.6626 0.9940
-1.0026 3.7902 -2.0339 0.9825
-1.3422 3.6837 -2.0339 0.9825
-1.6707 3.5468 -2.0339 0.9825
-1.9855 3.3807 -2.0339 0.9825
-2.8218 2.7218 -2.0339 0.9825
-3.0570 2.4547 -2.0339 0.9825
-1.1119 0.4755 -0.6274 0.9946
-1.1728 0.2653 -0.6238 0.9946
-1.1977 0.1586 -0.6267 0.9946
-1.1980 0.0490 -0.6220 0.9946
-1.1989 -0.0599 -0.6227 0.9946
-1.8806 3.2021 -2.0339 0.9832
-2.1632 3.0184 -2.0339 0.9832
-2.4280 2.8098 -2.0339 0.9832
-2.8955 2.3250 -2.0339 0.9832
-3.2679 1.7638 -2.0339 0.9832
-1.0046 0.4296 -0.5985 0.9950
-1.0315 0.3342 -0.5939 0.9951
-1.0519 0.2380 -0.5907 0.9951
-1.0813 -0.0540 -0.5930 0.9951
-0.9009 3.4057 -2.0339 0.9839
-1.7840 3.0377 -2.0339 0.9839
-2.3033 2.6655 -2.0339 0.9839
-0.9016 0.4866 -0.5916 0.9953
-0.9900 0.0405 -0.5721 0.9954
-0.9900 -0.0495 -0.5723 0.9954
