ply
format ascii 1.0
element vertex 179
property float32 x
property float32 y
property float32 z
property float32 I
end_header
2.8826 -6.0778 -0.6458 0.9733
-9.2480 -14.4077 -2.0337 0.9334
-7.8831 -15.1975 -2.0337 0.9334
-4.9651 -16.3848 -2.0337 0.9334
-3.4366 -16.7721 -2.0337 0.9334
-1.8788 -17.0173 -2.0337 0.9334
2.3542 -6.4350 -0.8139 0.9728
11.2806 -12.8807 -2.0339 0.9334
12.4180 -11.7882 -2.0339 0.9334
-7.7533 -12.0790 -2.0337 0.9437
-4.1625 -13.7365 -2.0337 0.9437
-1.5751 -14.2668 -2.0337 0.9437
1.0657 -14.3140 -2.0337 0.9437
2.3782 -14.1553 -2.0338 0.9437
1.7195 -6.5007 -0.9527 0.9732
2.2575 -6.1708 -0.9310 0.9738
2.8112 -5.9273 -0.9295 0.9738
7.3183 -12.3485 -2.0338 0.9437
8.4234 -11.6229 -2.0338 0.9437
9.4572 -10.7986 -2.0339 0.9437
10.4107 -9.8828 -2.0339 0.9437
-6.6685 -10.3891 -2.0337 0.9512
-5.6844 -10.9586 -2.0337 0.9512
-4.6520 -11.4351 -2.0337 0.9512
-3.5802 -11.8147 -2.0337 0.9512
-1.3548 -12.2707 -2.0338 0.9512
-0.2200 -12.3434 -2.0338 0.9512
2.0454 -12.1748 -2.0338 0.9512
2.7658 -5.8317 -1.0633 0.9742
6.2944 -10.6207 -2.0338 0.9512
7.2449 -9.9966 -2.0339 0.9512
8.1340 -9.2878 -2.0339 0.9512
8.9541 -8.5000 -2.0339 0.9512
-5.8447 -9.1057 -2.0337 0.9569
-4.9821 -9.6048 -2.0338 0.9569
-4.0773 -10.0225 -2.0338 0.9569
-3.1379 -10.3552 -2.0338 0.9569
-2.1719 -10.6000 -2.0338 0.9569
0.8034 -10.7904 -2.0338 0.9569
1.7927 -10.6708 -2.0338 0.9569
7.1291 -8.1403 -2.0339 0.9569
7.8479 -7.4499 -2.0339 0.9569
-5.1972 -8.0969 -2.0338 0.9614
-4.4302 -8.5408 -2.0338 0.9614
-1.0559 -9.5634 -2.0338 0.9614
0.7144 -9.5950 -2.0338 0.9614
1.5941 -9.4886 -2.0338 0.9614
1.6365 -6.1871 -1.3528 0.9742
3.4685 -5.8526 -1.4381 0.9726
-3.9845 -7.6816 -2.0338 0.9651
-3.2609 -8.0156 -2.0338 0.9651
-2.5096 -8.2817 -2.0338 0.9651
-1.7370 -8.4775 -2.0338 0.9651
-0.9496 -8.6014 -2.0338 0.9651
-0.1542 -8.6523 -2.0338 0.9651
0.6425 -8.6298 -2.0338 0.9651
1.5726 -5.9456 -1.4454 0.9750
2.0911 -5.7156 -1.4304 0.9753
2.7347 -5.7661 -1.4999 0.9741
5.0783 -7.0072 -2.0339 0.9651
5.7016 -6.5103 -2.0339 0.9651
6.2764 -5.9581 -2.0339 0.9651
2.1136 -5.7773 -1.5928 0.9749
2.6657 -5.6207 -1.6107 0.9746
4.0049 -6.7576 -2.0339 0.9681
4.6097 -6.3605 -2.0339 0.9681
5.1754 -5.9095 -2.0339 0.9681
5.6971 -5.4083 -2.0339 0.9681
-3.8807 -6.0459 -2.0338 0.9706
-3.3080 -6.3773 -2.0338 0.9706
-0.7884 -7.1409 -2.0338 0.9706
-0.1280 -7.1832 -2.0338 0.9706
0.5334 -7.1645 -2.0338 0.9706
1.5951 -6.0304 -1.7659 0.9744
2.1800 -5.9589 -1.7963 0.9740
4.2161 -5.8174 -2.0339 0.9706
5.2106 -4.9464 -2.0339 0.9706
-1.9176 -6.3282 -2.0338 0.9727
-1.3273 -6.4778 -2.0338 0.9727
0.4909 -6.5942 -2.0338 0.9727
1.0955 -6.5210 -2.0338 0.9727
1.6909 -6.3926 -2.0338 0.9727
2.8336 -5.9746 -2.0339 0.9727
4.7959 -4.5526 -2.0339 0.9727
-2.8173 -5.4312 -2.0338 0.9745
-2.3057 -5.6675 -2.0338 0.9745
-1.2281 -5.9940 -2.0338 0.9745
0.4542 -6.1017 -2.0338 0.9745
2.6220 -5.5284 -2.0339 0.9745
3.1195 -5.2637 -2.0339 0.9745
3.5906 -4.9544 -2.0339 0.9745
-3.0722 -4.7862 -2.0338 0.9761
-2.1432 -5.2681 -2.0338 0.9761
-1.6494 -5.4429 -2.0338 0.9761
-0.6241 -5.6530 -2.0338 0.9761
0.4222 -5.6717 -2.0338 0.9761
0.9423 -5.6088 -2.0338 0.9761
1.4543 -5.4983 -2.0339 0.9761
1.9541 -5.3412 -2.0339 0.9761
2.4372 -5.1388 -2.0339 0.9761
2.8996 -4.8927 -2.0339 0.9761
3.3375 -4.6052 -2.0339 0.9761
3.7471 -4.2786 -2.0339 0.9761
4.1249 -3.9157 -2.0339 0.9761
-2.8668 -4.4663 -2.0338 0.9775
-2.4437 -4.7112 -2.0338 0.9775
-1.9999 -4.9160 -2.0338 0.9775
-1.5391 -5.0792 -2.0338 0.9775
-1.0653 -5.1993 -2.0338 0.9775
0.3940 -5.2927 -2.0338 0.9775
0.8793 -5.2340 -2.0338 0.9775
1.8234 -4.9843 -2.0339 0.9775
2.7059 -4.5658 -2.0339 0.9775
3.4967 -3.9927 -2.0339 0.9775
3.8492 -3.6540 -2.0339 0.9775
-2.2881 -4.4112 -2.0338 0.9788
-1.8726 -4.6030 -2.0338 0.9788
-1.4412 -4.7558 -2.0338 0.9788
-0.9975 -4.8683 -2.0338 0.9788
0.3689 -4.9557 -2.0338 0.9788
0.8233 -4.9007 -2.0339 0.9788
1.2707 -4.8042 -2.0339 0.9788
2.5336 -4.2751 -2.0339 0.9788
2.9162 -4.0239 -2.0339 0.9788
3.2741 -3.7385 -2.0339 0.9788
3.6041 -3.4214 -2.0339 0.9788
-2.1488 -4.1426 -2.0338 0.9798
-0.9367 -4.5718 -2.0338 0.9798
-0.5121 -4.6386 -2.0338 0.9798
0.3465 -4.6539 -2.0339 0.9798
1.1934 -4.5116 -2.0339 0.9798
1.9998 -4.2166 -2.0339 0.9798
2.3794 -4.0147 -2.0339 0.9798
2.7386 -3.7788 -2.0339 0.9798
3.0747 -3.5108 -2.0339 0.9798
3.3846 -3.2130 -2.0339 0.9798
-2.0232 -3.9004 -2.0338 0.9808
-1.2743 -4.2050 -2.0338 0.9808
-0.4822 -4.3673 -2.0338 0.9808
-0.0784 -4.3932 -2.0339 0.9808
0.3262 -4.3817 -2.0339 0.9808
0.7280 -4.3332 -2.0339 0.9808
1.1236 -4.2478 -2.0339 0.9808
1.5097 -4.1264 -2.0339 0.9808
1.8829 -3.9700 -2.0339 0.9808
2.8949 -3.3055 -2.0339 0.9808
-1.9091 -3.6806 -2.0338 0.9817
-0.8323 -4.0619 -2.0338 0.9817
-0.4550 -4.1212 -2.0339 0.9817
-0.0739 -4.1456 -2.0339 0.9817
1.0603 -4.0085 -2.0339 0.9817
1.4246 -3.8939 -2.0339 0.9817
1.7768 -3.7463 -2.0339 0.9817
2.1140 -3.5670 -2.0339 0.9817
2.7318 -3.1193 -2.0339 0.9817
3.0072 -2.8547 -2.0339 0.9817
-0.4302 -3.8968 -2.0339 0.9825
0.2911 -3.9097 -2.0339 0.9825
0.6495 -3.8663 -2.0339 0.9825
1.9988 -3.3727 -2.0339 0.9825
2.3006 -3.1745 -2.0339 0.9825
-2.0059 -3.1250 -2.0338 0.9832
-1.7098 -3.2963 -2.0338 0.9832
-1.3994 -3.4397 -2.0338 0.9832
-0.7454 -3.6379 -2.0339 0.9832
-0.0662 -3.7129 -2.0339 0.9832
0.9496 -3.5900 -2.0339 0.9832
1.5913 -3.3552 -2.0339 0.9832
2.1792 -3.0069 -2.0339 0.9832
2.6932 -2.5567 -2.0339 0.9832
-1.9029 -2.9646 -2.0339 0.9839
-1.6221 -3.1271 -2.0339 0.9839
-1.3275 -3.2631 -2.0339 0.9839
-1.0216 -3.3714 -2.0339 0.9839
0.2615 -3.5130 -2.0339 0.9839
0.5836 -3.4741 -2.0339 0.9839
1.2103 -3.3083 -2.0339 0.9839
1.5095 -3.1829 -2.0339 0.9839
2.5550 -2.4254 -2.0339 0.9839
