ply
format ascii 1.0
element vertex 175
property float32 x
property float32 y
property float32 z
property float32 I
end_header
17.4596 -3.4655 -0.9027 0.9312
13.6055 9.4072 -0.8389 0.9359
13.3762 9.2487 -1.1924 0.9369
12.7606 -11.4166 -2.0339 0.9334
13.7249 -10.2375 -2.0339 0.9334
14.5805 -8.9773 -2.0339 0.9334
16.4327 -4.8130 -2.0340 0.9334
16.5959 4.2199 -2.0341 0.9333
15.5868 7.0915 -2.0341 0.9333
13.2705 9.1756 -1.9165 0.9371
13.1641 10.9522 -2.0341 0.9333
10.6980 -9.5712 -2.0339 0.9437
11.5063 -8.5826 -2.0339 0.9437
12.8443 -6.4102 -2.0339 0.9437
13.3632 -5.2433 -2.0340 0.9437
13.7764 -4.0350 -2.0340 0.9437
14.3532 -0.2578 -2.0340 0.9437
14.3194 1.0187 -2.0340 0.9437
14.1723 2.2873 -2.0340 0.9437
13.9130 3.5378 -2.0341 0.9437
12.4871 7.0828 -2.0341 0.9437
9.2011 -8.2320 -2.0339 0.9512
9.8964 -7.3818 -2.0339 0.9512
10.5134 -6.4731 -2.0339 0.9512
11.0470 -5.5133 -2.0339 0.9512
12.1104 -2.4037 -2.0340 0.9512
12.2762 -1.3180 -2.0340 0.9512
12.3158 0.8762 -2.0340 0.9512
11.9662 3.0427 -2.0340 0.9512
11.2386 5.1132 -2.0341 0.9512
10.1559 7.0221 -2.0341 0.9512
9.4917 7.8969 -2.0341 0.9512
8.0644 -7.2150 -2.0339 0.9569
8.6737 -6.4698 -2.0339 0.9569
10.7595 -1.1552 -2.0340 0.9569
10.8196 -0.1944 -2.0340 0.9569
10.6832 1.7242 -2.0340 0.9569
10.2093 3.5883 -2.0340 0.9569
7.1709 -6.4156 -2.0339 0.9614
8.9573 -3.5146 -2.0339 0.9614
9.4382 -1.8733 -2.0340 0.9614
9.6209 -0.1728 -2.0340 0.9614
9.5982 0.6829 -2.0340 0.9614
9.4996 1.5332 -2.0340 0.9614
9.3257 2.3713 -2.0340 0.9614
8.3700 4.7475 -2.0340 0.9614
7.9149 5.4726 -2.0340 0.9614
7.3973 6.1544 -2.0340 0.9614
6.4495 -5.7702 -2.0339 0.9651
6.9369 -5.1743 -2.0339 0.9651
7.3693 -4.5373 -2.0339 0.9651
7.7434 -3.8645 -2.0339 0.9651
8.6530 -0.1554 -2.0340 0.9651
8.6326 0.6142 -2.0340 0.9651
8.3876 2.1328 -2.0340 0.9651
6.6530 5.5352 -2.0340 0.9651
5.8543 -5.2377 -2.0339 0.9681
7.8107 -0.8386 -2.0340 0.9681
7.8359 0.5575 -2.0340 0.9681
7.6134 1.9359 -2.0340 0.9681
7.4113 2.6049 -2.0340 0.9681
6.8331 3.8758 -2.0340 0.9681
6.4617 4.4678 -2.0340 0.9681
6.0390 5.0243 -2.0340 0.9681
5.7589 -4.2956 -2.0339 0.9706
6.1180 -3.7669 -2.0339 0.9706
6.4285 -3.2083 -2.0339 0.9706
6.6883 -2.6243 -2.0339 0.9706
6.8951 -2.0195 -2.0339 0.9706
7.0473 -1.3988 -2.0339 0.9706
7.1667 0.5099 -2.0340 0.9706
6.9633 1.7706 -2.0340 0.9706
6.7784 2.3824 -2.0340 0.9706
6.5399 2.9754 -2.0340 0.9706
6.2496 3.5448 -2.0340 0.9706
5.3005 -3.9537 -2.0339 0.9727
5.9168 -2.9529 -2.0339 0.9727
6.5284 1.0536 -2.0340 0.9727
5.7520 3.2626 -2.0340 0.9727
4.9046 -3.6584 -2.0339 0.9745
5.6961 -2.2350 -2.0339 0.9745
6.0839 -0.6532 -2.0339 0.9745
6.1179 -0.1099 -2.0340 0.9745
6.0408 0.9749 -2.0340 0.9745
5.9302 1.5079 -2.0340 0.9745
5.7728 2.0290 -2.0340 0.9745
5.5696 2.5340 -2.0340 0.9745
5.3224 3.0189 -2.0340 0.9745
4.7039 3.9135 -2.0340 0.9745
5.4583 -1.5987 -2.0339 0.9761
5.5788 -1.1073 -2.0339 0.9761
5.6868 -0.1022 -2.0339 0.9761
5.6734 0.4036 -2.0340 0.9761
4.9473 2.8062 -2.0340 0.9761
4.3724 3.6377 -2.0340 0.9761
3.9554 -3.5388 -2.0339 0.9775
4.2543 -3.1733 -2.0339 0.9775
4.5195 -2.7827 -2.0339 0.9775
5.0936 -1.4919 -2.0339 0.9775
5.2060 -1.0333 -2.0339 0.9775
5.2772 -0.5666 -2.0339 0.9775
5.3067 -0.0953 -2.0339 0.9775
5.2942 0.3767 -2.0340 0.9775
5.2398 0.8457 -2.0340 0.9775
4.6167 2.6186 -2.0340 0.9775
4.3657 3.0185 -2.0340 0.9775
4.2318 -2.6055 -2.0339 0.9788
4.4466 -2.2192 -2.0339 0.9788
4.7693 -1.3969 -2.0339 0.9788
4.8745 -0.9675 -2.0339 0.9788
4.9689 -0.0893 -2.0339 0.9787
4.9571 0.3527 -2.0339 0.9787
4.9061 0.7918 -2.0340 0.9788
4.6885 1.6479 -2.0340 0.9787
4.0877 2.8263 -2.0340 0.9787
3.8204 3.1785 -2.0340 0.9787
3.7408 -2.7903 -2.0339 0.9798
3.9740 -2.4469 -2.0339 0.9798
4.3445 -1.7047 -2.0339 0.9798
4.5777 -0.9086 -2.0339 0.9798
4.6403 -0.4982 -2.0339 0.9798
4.6662 -0.0838 -2.0339 0.9798
4.6552 0.3312 -2.0339 0.9798
4.5231 1.1501 -2.0340 0.9798
4.4030 1.5475 -2.0340 0.9798
4.2480 1.9327 -2.0340 0.9798
4.0595 2.3025 -2.0340 0.9798
3.5877 2.9849 -2.0340 0.9798
3.2747 -2.9297 -2.0339 0.9808
3.5221 -2.6271 -2.0339 0.9808
3.7417 -2.3038 -2.0339 0.9808
4.0904 -1.6050 -2.0339 0.9808
4.2169 -1.2351 -2.0339 0.9808
4.3689 -0.4691 -2.0339 0.9808
4.3379 0.7001 -2.0339 0.9808
4.1455 1.4570 -2.0340 0.9808
3.8220 2.1679 -2.0340 0.9808
3.6143 2.4990 -2.0340 0.9808
3.3779 2.8103 -2.0340 0.9808
3.3236 -2.4791 -2.0339 0.9817
3.9793 -1.1655 -2.0339 0.9817
4.1228 -0.4426 -2.0339 0.9817
4.1458 -0.0745 -2.0339 0.9817
4.1361 0.2942 -2.0339 0.9817
3.7743 1.7171 -2.0340 0.9817
3.6067 2.0458 -2.0340 0.9817
3.1876 2.6520 -2.0340 0.9817
3.5080 -1.7507 -2.0339 0.9825
3.6497 -1.4321 -2.0339 0.9825
2.1059 -0.4180 -1.1138 0.9904
2.0797 -0.2233 -1.0851 0.9906
2.0742 -0.0373 -1.0762 0.9907
3.7997 0.9662 -2.0339 0.9825
3.5686 1.6236 -2.0339 0.9825
2.7676 -2.4761 -2.0339 0.9832
2.9767 -2.2203 -2.0339 0.9832
3.4570 -1.3564 -2.0339 0.9832
1.8481 -0.1984 -1.0180 0.9916
1.8517 -0.0333 -1.0144 0.9916
1.8520 0.1317 -1.0169 0.9916
1.8506 0.2987 -1.0267 0.9915
1.9819 0.6966 -1.1506 0.9905
3.3802 1.5379 -2.0339 0.9832
3.2302 1.8322 -2.0339 0.9832
2.8548 2.3751 -2.0340 0.9832
2.6254 -2.3489 -2.0339 0.9839
2.8238 -2.1063 -2.0339 0.9839
2.9998 -1.8470 -2.0339 0.9839
3.1521 -1.5731 -2.0339 0.9839
1.7337 -0.6803 -1.0753 0.9914
1.7246 -0.0310 -0.9959 0.9921
1.7228 0.1225 -0.9972 0.9921
1.7823 0.8109 -1.1305 0.9910
2.8977 2.0035 -2.0339 0.9839
2.7082 2.2531 -2.0339 0.9839
