ply
format ascii 1.0
element vertex 167
property float32 x
property float32 y
property float32 z
property float32 I
end_header
14.6464 8.7850 -1.2523 0.9338
13.1343 9.6126 -1.5626 0.9367
15.2938 -7.7000 -2.0339 0.9334
16.4402 -4.7877 -2.0340 0.9334
16.8091 -3.2653 -2.0340 0.9334
17.0373 -1.7154 -2.0340 0.9333
17.1229 -0.1512 -2.0340 0.9333
16.5230 4.4969 -2.0341 0.9333
15.4287 7.4293 -2.0341 0.9333
11.7472 12.4598 -2.0341 0.9333
10.5593 13.4813 -2.0341 0.9333
13.3580 -5.2566 -2.0340 0.9437
14.2832 -1.4381 -2.0340 0.9437
14.3550 -0.1268 -2.0340 0.9437
14.3066 1.1857 -2.0340 0.9437
13.8520 3.7699 -2.0341 0.9437
13.4495 5.0201 -2.0341 0.9437
12.9345 6.2282 -2.0341 0.9437
11.5849 8.4786 -2.0341 0.9437
10.7615 9.5018 -2.0341 0.9437
9.8482 10.4456 -2.0341 0.9437
8.8523 11.3019 -2.0341 0.9437
12.1201 -2.3544 -2.0340 0.9512
11.5675 4.3176 -2.0340 0.9512
11.1246 5.3567 -2.0341 0.9512
9.9638 7.2922 -2.0341 0.9512
8.4701 8.9840 -2.0341 0.9512
10.0695 -3.9625 -2.0339 0.9569
10.3896 -3.0257 -2.0340 0.9569
10.7669 -1.0841 -2.0340 0.9569
10.8210 -0.0956 -2.0340 0.9569
10.7845 0.8937 -2.0340 0.9569
10.4417 2.8418 -2.0340 0.9569
9.7501 4.6949 -2.0340 0.9569
6.6729 8.5194 -2.0341 0.9569
8.1629 -5.0943 -2.0339 0.9614
8.9538 -3.5235 -2.0339 0.9614
9.2384 -2.6905 -2.0339 0.9614
9.4457 -1.8349 -2.0340 0.9614
9.4768 1.6678 -2.0340 0.9614
9.0150 3.3649 -2.0340 0.9614
8.6698 4.1747 -2.0340 0.9614
8.2521 4.9496 -2.0340 0.9614
7.7652 5.6830 -2.0340 0.9614
5.9336 7.5755 -2.0340 0.9614
7.3417 -4.5818 -2.0339 0.9651
7.7297 -3.8917 -2.0339 0.9651
8.3091 -2.4198 -2.0339 0.9651
8.6540 -0.0764 -2.0340 0.9651
8.6249 0.7148 -2.0340 0.9651
8.5235 1.5000 -2.0340 0.9651
8.3507 2.2727 -2.0340 0.9651
8.1081 3.0264 -2.0340 0.9651
7.7976 3.7547 -2.0340 0.9651
7.4218 4.4516 -2.0340 0.9651
5.3366 6.8134 -2.0340 0.9651
7.0164 -3.5326 -2.0339 0.9681
7.8161 -0.7870 -2.0340 0.9681
7.8554 -0.0694 -2.0340 0.9681
7.0779 3.4082 -2.0340 0.9681
6.7368 4.0408 -2.0340 0.9681
6.3394 4.6396 -2.0340 0.9681
4.8441 6.1845 -2.0340 0.9681
6.4172 -3.2309 -2.0339 0.9706
7.1603 0.5934 -2.0340 0.9706
7.0761 1.2453 -2.0340 0.9706
6.7312 2.5125 -2.0340 0.9706
6.4735 3.1171 -2.0340 0.9706
6.1616 3.6957 -2.0340 0.9706
5.3859 4.7555 -2.0340 0.9706
5.9063 -2.9737 -2.0339 0.9727
6.1534 -2.4215 -2.0339 0.9727
6.3490 -1.8490 -2.0339 0.9727
6.4914 -1.2610 -2.0339 0.9727
6.5796 -0.6625 -2.0339 0.9727
6.6126 -0.0584 -2.0340 0.9727
6.3808 1.7366 -2.0340 0.9727
6.1954 2.3124 -2.0340 0.9727
5.9581 2.8690 -2.0340 0.9727
5.6710 3.4015 -2.0340 0.9727
4.9572 4.3769 -2.0340 0.9727
4.5364 4.8116 -2.0340 0.9727
4.0777 5.2061 -2.0340 0.9727
5.1908 -3.2395 -2.0339 0.9745
5.4652 -2.7516 -2.0339 0.9745
6.0066 -1.1668 -2.0339 0.9745
6.0881 -0.6130 -2.0339 0.9745
6.1187 -0.0540 -2.0340 0.9745
5.9042 1.6069 -2.0340 0.9745
5.7327 2.1397 -2.0340 0.9745
5.5131 2.6547 -2.0340 0.9745
5.2474 3.1474 -2.0340 0.9745
3.7731 4.8172 -2.0340 0.9745
4.8250 -3.0113 -2.0339 0.9761
5.0801 -2.5577 -2.0339 0.9761
5.5833 -1.0846 -2.0339 0.9761
5.6016 0.9858 -2.0340 0.9761
5.3286 1.9889 -2.0340 0.9761
4.8776 2.9256 -2.0340 0.9761
4.5898 3.3591 -2.0340 0.9761
4.5026 -2.8100 -2.0339 0.9775
4.7406 -2.3867 -2.0339 0.9775
5.2101 -1.0121 -2.0339 0.9775
5.2808 -0.5317 -2.0339 0.9775
5.2894 0.4383 -2.0340 0.9775
5.2273 0.9199 -2.0340 0.9775
4.9725 1.8560 -2.0340 0.9775
4.5516 2.7301 -2.0340 0.9775
4.6244 -1.8198 -2.0339 0.9788
4.7714 -1.3896 -2.0339 0.9788
4.8784 -0.9477 -2.0339 0.9788
4.8944 0.8614 -2.0340 0.9788
4.6559 1.7378 -2.0340 0.9787
4.4776 2.1561 -2.0340 0.9787
3.0644 3.9124 -2.0340 0.9787
4.1684 -2.0987 -2.0339 0.9798
4.3428 -1.7090 -2.0339 0.9798
4.5813 -0.8900 -2.0339 0.9798
4.6510 0.3854 -2.0339 0.9798
4.5964 0.8089 -2.0339 0.9798
4.5032 1.2256 -2.0340 0.9798
4.0023 2.4006 -2.0340 0.9798
3.7661 2.7563 -2.0340 0.9798
3.4985 3.0889 -2.0340 0.9798
3.2015 3.3958 -2.0340 0.9798
3.7277 -2.3264 -2.0339 0.9808
3.9247 -1.9759 -2.0339 0.9808
4.2188 -1.2286 -2.0339 0.9808
4.3791 0.3629 -2.0339 0.9808
4.3275 0.7616 -2.0339 0.9808
4.1167 1.5365 -2.0340 0.9808
3.7682 2.2602 -2.0340 0.9808
3.2939 2.9083 -2.0340 0.9808
3.0143 3.1972 -2.0340 0.9808
2.7095 3.4593 -2.0340 0.9808
3.7036 -1.8646 -2.0339 0.9817
3.8584 -1.5184 -2.0339 0.9817
4.1256 -0.4154 -2.0339 0.9817
4.1463 -0.0366 -2.0339 0.9817
4.1323 0.3425 -2.0339 0.9817
4.0009 1.0889 -2.0339 0.9817
3.7360 1.7989 -2.0340 0.9817
3.5559 2.1329 -2.0340 0.9817
2.5568 3.2644 -2.0340 0.9817
3.3260 -2.0757 -2.0339 0.9825
3.7642 -1.0962 -2.0339 0.9825
3.6731 1.3710 -2.0339 0.9825
3.5324 1.7010 -2.0339 0.9825
3.3622 2.0167 -2.0340 0.9825
3.1639 2.3155 -2.0340 0.9825
2.9390 2.5950 -2.0340 0.9825
3.1504 -1.9661 -2.0339 0.9832
3.3169 -1.6700 -2.0339 0.9832
1.8491 -0.1862 -1.0179 0.9916
1.8531 0.3261 -1.0306 0.9915
1.8633 0.5071 -1.0577 0.9912
3.3459 1.6111 -2.0339 0.9832
2.9968 2.1932 -2.0340 0.9832
2.7838 2.4579 -2.0340 0.9832
2.2899 2.9236 -2.0340 0.9832
3.1466 -1.5842 -2.0339 0.9839
1.7359 -0.6831 -1.0770 0.9914
1.7246 -0.0153 -0.9958 0.9921
1.7219 0.1427 -0.9975 0.9921
1.7193 0.6417 -1.0595 0.9916
3.1741 1.5284 -2.0339 0.9839
2.8429 2.0806 -2.0339 0.9839
