ply
format ascii 1.0
element vertex 184
property float32 x
property float32 y
property float32 z
property float32 I
end_header
-11.9112 13.0675 3.1177 0.9307
-11.3117 12.4098 2.1866 0.9345
-13.0392 12.0194 2.3093 0.9310
-12.1466 13.3257 1.1181 0.9303
-16.5162 5.2914 -0.8795 0.9329
-11.9462 13.1059 -1.3003 0.9313
-16.4137 5.2586 -1.2637 0.9332
-1.6515 7.4724 -0.7347 0.9697
-1.6401 7.4207 -0.9028 0.9699
-5.1332 16.3361 -2.0340 0.9333
-7.8818 15.2014 -2.0340 0.9334
-15.1561 7.9660 -2.0339 0.9334
-15.7904 6.6199 -2.0338 0.9334
-16.3054 5.2239 -2.0338 0.9334
-16.6972 3.7885 -2.0338 0.9334
-17.1005 0.8427 -2.0338 0.9334
-17.1089 -0.6453 -2.0337 0.9334
-5.4762 13.2698 -2.0340 0.9437
-10.5546 9.7292 -2.0339 0.9437
-11.3595 8.7759 -2.0339 0.9437
-13.2380 5.5498 -2.0338 0.9437
-14.2211 1.9486 -2.0338 0.9437
-1.5777 7.1383 -1.2043 0.9708
-2.2847 7.2708 -1.2555 0.9696
-4.7100 11.4130 -2.0340 0.9512
-6.6133 10.4260 -2.0340 0.9512
-9.0779 8.3679 -2.0339 0.9512
-9.7701 7.5481 -2.0339 0.9512
-10.3885 6.6712 -2.0339 0.9512
-11.3858 4.7733 -2.0339 0.9512
-12.0397 2.7317 -2.0338 0.9512
-12.2313 1.6759 -2.0338 0.9512
-1.5973 7.2270 -1.3912 0.9703
-4.9809 9.6067 -2.0340 0.9569
-5.7962 9.1379 -2.0340 0.9569
-7.2896 7.9973 -2.0339 0.9569
-7.9564 7.3341 -2.0339 0.9569
-8.5631 6.6155 -2.0339 0.9569
-9.1051 5.8470 -2.0339 0.9569
-9.5783 5.0343 -2.0339 0.9569
-10.3046 3.3014 -2.0338 0.9569
-10.5523 2.3942 -2.0338 0.9569
-10.7203 1.4689 -2.0338 0.9569
-10.8073 0.5325 -2.0338 0.9569
-10.8126 -0.4079 -2.0338 0.9569
-1.6074 7.2725 -1.5744 0.9700
-2.2513 7.1646 -1.5875 0.9698
-5.8401 7.6472 -2.0339 0.9614
-7.0749 6.5215 -2.0339 0.9614
-8.5171 4.4765 -2.0339 0.9614
-9.1630 2.9356 -2.0339 0.9614
-9.3833 2.1289 -2.0338 0.9614
-9.6100 0.4736 -2.0338 0.9614
-1.6525 7.4770 -1.7997 0.9690
-2.2786 7.2515 -1.7864 0.9693
-3.9835 7.6830 -2.0340 0.9651
-5.2525 6.8779 -2.0339 0.9651
-6.3631 5.8655 -2.0339 0.9651
-7.6603 4.0262 -2.0339 0.9651
-8.4393 1.9148 -2.0338 0.9651
-8.6432 0.4259 -2.0338 0.9651
-1.6954 7.6705 -2.0340 0.9681
-2.9967 7.2616 -2.0340 0.9681
-3.6159 6.9739 -2.0339 0.9681
-5.7759 5.3242 -2.0339 0.9681
-6.2163 4.8025 -2.0339 0.9681
-7.4807 2.3966 -2.0339 0.9681
-7.6605 1.7381 -2.0339 0.9681
-7.7825 1.0663 -2.0338 0.9681
-7.8456 0.3866 -2.0338 0.9681
-7.8495 -0.2961 -2.0338 0.9681
-1.5506 7.0155 -2.0340 0.9706
-2.7408 6.6414 -2.0340 0.9706
-3.3071 6.3784 -2.0339 0.9706
-4.8400 5.3098 -2.0339 0.9706
-5.2827 4.8695 -2.0339 0.9706
-5.6855 4.3924 -2.0339 0.9706
-6.0454 3.8821 -2.0339 0.9706
-7.0064 1.5896 -2.0339 0.9706
-7.1179 0.9753 -2.0339 0.9706
-7.1757 0.3536 -2.0338 0.9706
-1.9824 6.3087 -2.0340 0.9727
-2.5226 6.1127 -2.0339 0.9727
-4.0135 5.2554 -2.0339 0.9727
-5.2329 4.0427 -2.0339 0.9727
-6.4486 1.4631 -2.0339 0.9727
-6.5512 0.8977 -2.0339 0.9727
-6.6044 0.3254 -2.0338 0.9727
-6.6077 -0.2492 -2.0338 0.9727
-1.3205 5.9747 -2.0340 0.9745
-2.3342 5.6561 -2.0339 0.9745
-2.8164 5.4321 -2.0339 0.9745
-4.1219 4.5221 -2.0339 0.9745
-4.4990 4.1471 -2.0339 0.9745
-5.1485 3.3062 -2.0339 0.9745
-5.4161 2.8467 -2.0339 0.9745
-5.9669 1.3538 -2.0339 0.9745
-6.0619 0.8306 -2.0339 0.9745
-1.2275 5.5536 -2.0340 0.9761
-2.6180 5.0493 -2.0339 0.9761
-3.0465 4.8029 -2.0339 0.9761
-3.4520 4.5202 -2.0339 0.9761
-3.8314 4.2034 -2.0339 0.9761
-4.1819 3.8548 -2.0339 0.9761
-4.5008 3.4772 -2.0339 0.9761
-5.0345 2.6461 -2.0339 0.9761
-5.4162 1.7352 -2.0339 0.9761
-5.6805 0.2799 -2.0339 0.9761
-1.1454 5.1825 -2.0339 0.9775
-1.5911 5.0634 -2.0339 0.9775
-2.0247 4.9061 -2.0339 0.9775
-2.4430 4.7118 -2.0339 0.9775
-3.5754 3.9225 -2.0339 0.9775
-4.6980 2.4693 -2.0339 0.9775
-5.1758 1.1743 -2.0339 0.9775
-5.2582 0.7205 -2.0339 0.9775
-5.3009 0.2612 -2.0339 0.9775
-1.0725 4.8525 -2.0339 0.9788
-1.8957 4.5938 -2.0339 0.9788
-2.2875 4.4118 -2.0339 0.9788
-2.6619 4.1965 -2.0339 0.9788
-3.0162 3.9496 -2.0339 0.9788
-3.3477 3.6728 -2.0339 0.9788
-3.6539 3.3682 -2.0339 0.9788
-3.9326 3.0382 -2.0339 0.9788
-4.1816 2.6853 -2.0339 0.9788
-4.3989 2.3120 -2.0339 0.9788
-4.5830 1.9214 -2.0339 0.9788
-2.1198 0.4809 -0.8896 0.9906
-2.1222 0.1045 -0.8696 0.9909
-1.3990 4.4523 -2.0339 0.9798
-1.7803 4.3140 -2.0339 0.9798
-2.1482 4.1431 -2.0339 0.9798
-3.1439 3.4491 -2.0339 0.9798
-3.4314 3.1631 -2.0339 0.9798
-3.9268 2.5217 -2.0339 0.9798
-4.4443 1.4238 -2.0339 0.9798
-1.9019 0.4315 -0.8499 0.9915
-1.9021 0.2606 -0.8367 0.9917
-1.9187 -0.0724 -0.8368 0.9917
-0.9483 4.2905 -2.0339 0.9808
-1.6762 4.0618 -2.0339 0.9808
-2.3536 3.7105 -2.0339 0.9808
-3.6972 2.3743 -2.0339 0.9808
-3.8894 2.0443 -2.0339 0.9808
-1.6101 0.5158 -0.7826 0.9926
-1.5885 0.3604 -0.7540 0.9928
-1.5868 -0.0599 -0.7350 0.9930
-1.2430 3.9557 -2.0339 0.9817
-1.5817 3.8329 -2.0339 0.9817
-2.5166 3.2954 -2.0339 0.9817
-2.7932 3.0644 -2.0339 0.9817
-3.8239 1.6031 -2.0339 0.9817
-1.2864 0.4121 -0.6626 0.9940
-1.3259 0.3008 -0.6669 0.9940
-1.3504 0.1850 -0.6686 0.9939
-1.3491 0.0664 -0.6625 0.9940
-1.3466 -0.0508 -0.6610 0.9940
-1.1753 3.7403 -2.0339 0.9825
-1.8046 3.4805 -2.0339 0.9825
-2.1000 3.3107 -2.0339 0.9825
-2.3795 3.1159 -2.0339 0.9825
-2.6411 2.8975 -2.0339 0.9825
-3.1025 2.3969 -2.0339 0.9825
-3.2989 2.1185 -2.0339 0.9825
-3.4704 1.8240 -2.0339 0.9825
-1.1726 0.2660 -0.6238 0.9946
-1.1977 -0.0452 -0.6218 0.9946
-1.1132 3.5428 -2.0339 0.9832
-1.7093 3.2967 -2.0339 0.9832
-2.2539 2.9513 -2.0339 0.9832
-2.5016 2.7445 -2.0339 0.9832
-2.7304 2.5169 -2.0339 0.9832
-3.1247 2.0066 -2.0339 0.9832
-1.0517 0.2386 -0.5907 0.9951
-1.0743 0.1472 -0.5939 0.9951
-1.0561 3.3608 -2.0339 0.9839
-1.6216 3.1274 -2.0339 0.9839
-2.5902 2.3877 -2.0339 0.9839
-2.7878 2.1537 -2.0339 0.9839
-0.9057 0.4760 -0.5907 0.9953
-0.9695 0.2199 -0.5739 0.9954
-0.9845 0.1349 -0.5737 0.9954
-0.9900 -0.0374 -0.5720 0.9954
