ply
format ascii 1.0
element vertex 187
property float32 x
property float32 y
property float32 z
property float32 I
end_header
-12.4467 -8.1050 -0.7533 0.9422
-16.9518 -2.4010 -2.0337 0.9334
-16.6778 -3.8698 -2.0337 0.9334
-11.4386 -12.7383 -2.0337 0.9334
-10.2844 -13.6871 -2.0337 0.9334
-3.5336 -16.7520 -2.0337 0.9334
-2.0596 -16.9963 -2.0337 0.9334
-14.2118 -2.0129 -2.0338 0.9437
-13.9821 -3.2444 -2.0337 0.9437
-12.6651 -6.7538 -2.0337 0.9437
-12.0280 -7.8324 -2.0337 0.9437
-11.2992 -8.8512 -2.0337 0.9437
-10.4844 -9.8027 -2.0337 0.9437
-9.5898 -10.6795 -2.0337 0.9437
-7.5888 -12.1830 -2.0337 0.9437
-5.3571 -13.3161 -2.0337 0.9437
-4.1757 -13.7325 -2.0337 0.9437
-0.4777 -14.3455 -2.0337 0.9437
-12.0258 -2.7905 -2.0338 0.9512
-11.7368 -3.8283 -2.0338 0.9512
-11.3582 -4.8371 -2.0337 0.9512
-8.2481 -9.1853 -2.0337 0.9512
-7.4159 -9.8695 -2.0337 0.9512
-5.5886 -11.0077 -2.0337 0.9512
-3.5915 -11.8112 -2.0337 0.9512
-1.4851 -12.2556 -2.0338 0.9512
0.6665 -12.3274 -2.0338 0.9512
-10.2868 -3.3554 -2.0338 0.9569
-9.0672 -5.9043 -2.0338 0.9569
-8.5179 -6.6724 -2.0338 0.9569
-7.9036 -7.3897 -2.0338 0.9569
-7.2293 -8.0506 -2.0337 0.9569
-4.0384 -10.0383 -2.0338 0.9569
-1.3016 -10.7416 -2.0338 0.9569
-0.3601 -10.8143 -2.0338 0.9569
0.5841 -10.8045 -2.0338 0.9569
-9.5265 -1.3493 -2.0338 0.9614
-9.3725 -2.1748 -2.0338 0.9614
-9.1472 -2.9836 -2.0338 0.9614
-7.5742 -5.9332 -2.0338 0.9614
-5.7797 -7.6920 -2.0338 0.9614
-4.3556 -8.5790 -2.0338 0.9614
-1.1574 -9.5516 -2.0338 0.9614
-0.3202 -9.6162 -2.0338 0.9614
0.5194 -9.6075 -2.0338 0.9614
-6.8123 -5.3364 -2.0338 0.9651
-6.3211 -5.9100 -2.0338 0.9651
-5.1983 -6.9182 -2.0338 0.9651
-4.5753 -7.3451 -2.0338 0.9651
-3.9174 -7.7161 -2.0338 0.9651
-3.2298 -8.0282 -2.0338 0.9651
-2.5175 -8.2793 -2.0338 0.9651
-1.7861 -8.4673 -2.0338 0.9651
-1.0410 -8.5908 -2.0338 0.9651
-0.2880 -8.6489 -2.0338 0.9651
-7.7774 -1.1016 -2.0338 0.9681
-7.6518 -1.7755 -2.0338 0.9681
-6.9311 -3.6961 -2.0338 0.9681
-6.5824 -4.2863 -2.0338 0.9681
-5.7377 -5.3646 -2.0338 0.9681
-5.2481 -5.8445 -2.0338 0.9681
-4.7186 -6.2798 -2.0338 0.9681
-4.1530 -6.6673 -2.0338 0.9681
-3.5560 -7.0040 -2.0338 0.9681
-2.2852 -7.5153 -2.0338 0.9681
0.4241 -7.8436 -2.0338 0.9681
-7.1133 -1.0075 -2.0338 0.9706
-6.6098 -2.8149 -2.0338 0.9706
-6.3393 -3.3805 -2.0338 0.9706
-6.0203 -3.9203 -2.0338 0.9706
-5.6556 -4.4303 -2.0338 0.9706
-5.2477 -4.9065 -2.0338 0.9706
-4.8000 -5.3454 -2.0338 0.9706
-4.3157 -5.7436 -2.0338 0.9706
-3.2523 -6.4059 -2.0338 0.9706
-2.6814 -6.6651 -2.0338 0.9706
-1.4828 -7.0296 -2.0338 0.9706
-0.2391 -7.1803 -2.0338 0.9706
-6.5471 -0.9273 -2.0338 0.9727
-6.2864 -2.0505 -2.0338 0.9727
-6.0837 -2.5908 -2.0338 0.9727
-5.2054 -4.0776 -2.0338 0.9727
-4.8300 -4.5159 -2.0338 0.9727
-4.4179 -4.9199 -2.0338 0.9727
-3.9721 -5.2863 -2.0338 0.9727
-3.4961 -5.6125 -2.0338 0.9727
-2.9934 -5.8960 -2.0338 0.9727
-1.9237 -6.3263 -2.0338 0.9727
-0.7955 -6.5644 -2.0338 0.9727
-0.2201 -6.6087 -2.0338 0.9727
-5.8169 -1.8974 -2.0338 0.9745
-5.6293 -2.3973 -2.0338 0.9745
-5.3988 -2.8790 -2.0338 0.9745
-4.8166 -3.7731 -2.0338 0.9745
-3.6754 -4.8915 -2.0338 0.9745
-3.2350 -5.1934 -2.0338 0.9745
-2.7698 -5.4556 -2.0338 0.9745
-1.7800 -5.8539 -2.0338 0.9745
-0.7360 -6.0741 -2.0338 0.9745
-0.2037 -6.1152 -2.0338 0.9745
-5.6311 -0.7976 -2.0338 0.9761
-5.4070 -1.7637 -2.0338 0.9761
-5.2326 -2.2284 -2.0338 0.9761
-5.0184 -2.6761 -2.0338 0.9761
-4.7659 -3.1035 -2.0338 0.9761
-4.4772 -3.5072 -2.0338 0.9761
-3.0070 -4.8274 -2.0338 0.9761
-2.5746 -5.0712 -2.0338 0.9761
-1.6546 -5.4413 -2.0338 0.9761
-1.1738 -5.5649 -2.0338 0.9761
-0.6842 -5.6460 -2.0338 0.9761
-0.1893 -5.6842 -2.0338 0.9761
-5.0456 -1.6458 -2.0338 0.9775
-4.8829 -2.0794 -2.0338 0.9775
-4.6830 -2.4973 -2.0338 0.9775
-3.8767 -3.6246 -2.0338 0.9775
-3.1881 -4.2429 -2.0338 0.9775
-2.8061 -4.5048 -2.0338 0.9775
-2.4026 -4.7323 -2.0338 0.9775
-1.5440 -5.0777 -2.0338 0.9775
-1.0954 -5.1930 -2.0338 0.9775
-0.6385 -5.2687 -2.0338 0.9775
-0.1766 -5.3043 -2.0338 0.9775
0.2865 -5.2996 -2.0338 0.9775
-2.1191 -0.4918 -0.8903 0.9906
-4.7244 -1.5410 -2.0338 0.9788
-4.3848 -2.3383 -2.0338 0.9788
-4.1643 -2.7117 -2.0338 0.9788
-3.3202 -3.6974 -2.0338 0.9788
-1.8547 -4.6103 -2.0338 0.9788
-1.4457 -4.7545 -2.0338 0.9788
-1.0257 -4.8624 -2.0338 0.9788
-0.1654 -4.9667 -2.0338 0.9788
-4.4367 -1.4472 -2.0338 0.9798
-4.2936 -1.8285 -2.0338 0.9798
-2.8034 -3.7309 -2.0338 0.9798
-2.4673 -3.9611 -2.0338 0.9798
-2.1127 -4.1612 -2.0338 0.9798
-1.7418 -4.3295 -2.0338 0.9798
-1.3577 -4.4649 -2.0338 0.9798
-0.5614 -4.6329 -2.0338 0.9798
-0.1554 -4.6642 -2.0338 0.9798
-1.5858 -0.3680 -0.7535 0.9929
-1.6276 -0.5309 -0.7925 0.9925
-3.8770 -2.0675 -2.0338 0.9808
-3.6820 -2.3976 -2.0338 0.9808
-3.4589 -2.7095 -2.0338 0.9808
-3.2095 -3.0008 -2.0338 0.9808
-2.6394 -3.5127 -2.0338 0.9808
-2.3231 -3.7295 -2.0338 0.9808
-1.6399 -4.0764 -2.0338 0.9808
-0.9069 -4.2993 -2.0338 0.9808
0.2372 -4.3875 -2.0339 0.9808
-1.3496 -0.1912 -0.6686 0.9939
-1.2836 -0.4187 -0.6623 0.9940
-3.8147 -1.6246 -2.0338 0.9817
-3.4745 -2.2626 -2.0338 0.9817
-2.7702 -3.0850 -2.0338 0.9817
-2.1922 -3.5194 -2.0338 0.9817
-0.8558 -4.0570 -2.0338 0.9817
-0.1380 -4.1440 -2.0339 0.9817
-1.1713 -0.2718 -0.6238 0.9946
-1.1125 -0.4738 -0.6273 0.9946
-3.2853 -2.1393 -2.0338 0.9825
-2.6193 -2.9170 -2.0338 0.9825
-2.3551 -3.1343 -2.0338 0.9825
-1.7748 -3.4958 -2.0338 0.9825
-1.1405 -3.7509 -2.0338 0.9825
-0.4716 -3.8920 -2.0339 0.9825
-1.0735 -0.1521 -0.5938 0.9951
-1.0311 -0.3364 -0.5940 0.9951
-2.9233 -2.2899 -2.0338 0.9832
-1.6811 -3.3111 -2.0338 0.9832
-1.3860 -3.4451 -2.0338 0.9832
-0.7664 -3.6335 -2.0339 0.9832
-0.4468 -3.6865 -2.0339 0.9832
0.2005 -3.7080 -2.0339 0.9832
-0.9840 -0.1394 -0.5738 0.9954
-0.9320 -0.3969 -0.5848 0.9953
-0.9035 -0.4818 -0.5912 0.9953
-2.9520 -1.9223 -2.0339 0.9839
-2.5732 -2.4059 -2.0339 0.9839
-1.8625 -2.9901 -2.0339 0.9839
-1.0248 -3.3704 -2.0339 0.9839
-0.7271 -3.4469 -2.0339 0.9839
-0.4237 -3.4972 -2.0339 0.9839
-0.1173 -3.5208 -2.0339 0.9839
