ply
format ascii 1.0
element vertex 188
property float32 x
property float32 y
property float32 z
property float32 I
end_header
3.1561 18.6581 2.8989 0.9263
1.4655 18.7703 2.8843 0.9266
3.1863 18.8372 2.4878 0.9258
1.3658 17.4950 2.2852 0.9317
2.9790 17.6115 1.5120 0.9308
2.9501 17.4407 1.0969 0.9316
1.4081 18.0367 1.1219 0.9301
3.2511 19.2199 0.7686 0.9249
1.3984 17.9120 0.7084 0.9306
3.0812 18.2160 -0.1040 0.9288
13.6259 9.2494 -0.8352 0.9362
-0.8068 7.9290 -0.7652 0.9685
-1.4835 7.6706 -0.7501 0.9691
-2.1372 7.4129 -0.7407 0.9695
13.2505 10.8475 -2.0341 0.9333
11.1035 13.0368 -2.0341 0.9333
8.6004 14.8080 -2.0341 0.9333
4.3562 16.5609 -2.0341 0.9333
1.3329 17.0722 -2.0341 0.9333
-0.2010 17.1228 -2.0341 0.9333
-6.1977 15.9625 -2.0340 0.9333
-7.6018 15.3434 -2.0340 0.9334
10.2496 10.0520 -2.0341 0.9437
9.3085 10.9293 -2.0341 0.9437
8.2926 11.7188 -2.0341 0.9437
1.1174 14.3123 -2.0341 0.9437
-0.1685 14.3548 -2.0341 0.9437
-0.7628 7.4975 -1.0678 0.9700
-1.4260 7.3728 -1.0640 0.9701
-2.1017 7.2895 -1.0749 0.9698
-5.1958 13.3821 -2.0340 0.9437
-6.3730 12.8631 -2.0340 0.9437
8.8154 8.6454 -2.0341 0.9512
6.2012 10.6771 -2.0341 0.9512
0.9611 12.3096 -2.0340 0.9512
-0.1449 12.3462 -2.0340 0.9512
-4.4688 11.5096 -2.0340 0.9512
-5.4812 11.0632 -2.0340 0.9512
7.7262 7.5772 -2.0341 0.9569
7.0168 8.2386 -2.0341 0.9569
5.4349 9.3579 -2.0341 0.9569
3.6789 10.1771 -2.0340 0.9569
2.7530 10.4656 -2.0340 0.9569
1.8049 10.6700 -2.0340 0.9569
0.8423 10.7887 -2.0340 0.9569
-0.1270 10.8207 -2.0340 0.9569
-2.0303 7.0421 -1.3775 0.9706
-3.9166 10.0876 -2.0340 0.9569
-4.8041 9.6964 -2.0340 0.9569
6.2393 7.3257 -2.0340 0.9614
4.8328 8.3210 -2.0340 0.9614
2.4479 9.3060 -2.0340 0.9614
1.6049 9.4878 -2.0340 0.9614
-0.1130 9.6219 -2.0340 0.9614
-2.0108 6.9746 -1.5343 0.9708
-3.4827 8.9699 -2.0340 0.9614
6.6967 5.4823 -2.0340 0.9651
5.6116 6.5887 -2.0340 0.9651
4.9992 7.0647 -2.0340 0.9651
4.3466 7.4839 -2.0340 0.9651
2.2016 8.3698 -2.0340 0.9651
1.4434 8.5333 -2.0340 0.9651
-0.7373 7.2469 -1.7120 0.9705
-1.4541 7.5187 -1.7998 0.9690
-2.0622 7.1528 -1.7496 0.9699
-3.1323 8.0676 -2.0340 0.9651
-3.8421 7.7547 -2.0340 0.9651
6.0786 4.9763 -2.0340 0.9681
5.6087 5.5005 -2.0340 0.9681
5.0937 5.9806 -2.0340 0.9681
4.5378 6.4127 -2.0340 0.9681
3.3214 7.1192 -2.0340 0.9681
2.6707 7.3879 -2.0340 0.9681
1.9984 7.5973 -2.0340 0.9681
0.6114 7.8319 -2.0340 0.9681
-0.0922 7.8552 -2.0340 0.9681
-2.1762 7.5482 -2.0340 0.9681
5.9447 4.0353 -2.0340 0.9706
5.5595 4.5513 -2.0340 0.9706
5.1297 5.0308 -2.0340 0.9706
4.6587 5.4699 -2.0340 0.9706
4.1503 5.8650 -2.0340 0.9706
3.0377 6.5112 -2.0340 0.9706
2.4426 6.7570 -2.0340 0.9706
1.8278 6.9485 -2.0340 0.9706
1.1983 7.0842 -2.0340 0.9706
0.5593 7.1630 -2.0340 0.9706
-0.0844 7.1843 -2.0340 0.9706
-1.3643 7.0541 -2.0340 0.9706
4.7213 4.6303 -2.0340 0.9727
4.2878 5.0344 -2.0340 0.9727
2.7959 5.9928 -2.0340 0.9727
1.6823 6.3953 -2.0340 0.9727
0.5147 6.5928 -2.0340 0.9727
-0.0776 6.6124 -2.0340 0.9727
-2.9357 5.9254 -2.0339 0.9727
4.7347 3.8761 -2.0340 0.9745
4.3687 4.2845 -2.0340 0.9745
3.9675 4.6584 -2.0340 0.9745
3.0731 5.2913 -2.0340 0.9745
2.5870 5.5452 -2.0340 0.9745
2.0802 5.7545 -2.0340 0.9745
1.5566 5.9177 -2.0340 0.9745
0.4762 6.1004 -2.0340 0.9745
-0.0718 6.1185 -2.0340 0.9745
-0.6193 6.0875 -2.0340 0.9745
-1.1619 6.0076 -2.0340 0.9745
-1.6950 5.8794 -2.0340 0.9745
4.4011 3.6029 -2.0340 0.9761
2.8566 4.9184 -2.0340 0.9761
1.4469 5.5006 -2.0340 0.9761
0.9486 5.6080 -2.0340 0.9761
0.4427 5.6704 -2.0340 0.9761
-0.0668 5.6873 -2.0340 0.9761
-0.5757 5.6585 -2.0340 0.9761
-2.5250 5.0964 -2.0339 0.9761
4.1069 3.3621 -2.0340 0.9775
3.4415 4.0407 -2.0340 0.9775
3.0658 4.3326 -2.0340 0.9775
2.2440 4.8099 -2.0340 0.9775
0.8852 5.2333 -2.0340 0.9775
0.4131 5.2915 -2.0340 0.9775
-0.5372 5.2803 -2.0340 0.9775
3.5482 3.4797 -2.0340 0.9787
2.4959 4.2975 -2.0340 0.9787
1.6895 4.6737 -2.0340 0.9787
1.2643 4.8062 -2.0340 0.9787
0.8289 4.9001 -2.0340 0.9787
0.3868 4.9546 -2.0340 0.9787
-0.0584 4.9693 -2.0340 0.9787
-0.5030 4.9441 -2.0340 0.9788
-2.2062 4.4530 -2.0339 0.9788
3.8614 2.6212 -2.0340 0.9798
3.0261 3.5530 -2.0340 0.9798
2.3439 4.0357 -2.0340 0.9798
1.1873 4.5134 -2.0340 0.9798
0.7784 4.6016 -2.0340 0.9798
-0.0548 4.6666 -2.0340 0.9798
3.1372 3.0767 -2.0340 0.9808
2.8492 3.3452 -2.0340 0.9808
1.8578 3.9821 -2.0340 0.9808
0.3420 4.3807 -2.0340 0.9808
-0.4447 4.3715 -2.0339 0.9808
-0.8344 4.3141 -2.0339 0.9808
-1.5904 4.0961 -2.0339 0.9808
-1.9507 3.9373 -2.0339 0.9808
3.2085 2.6266 -2.0340 0.9817
2.6886 3.1568 -2.0340 0.9817
2.3952 3.3848 -2.0340 0.9817
2.0825 3.5856 -2.0340 0.9817
1.7531 3.7577 -2.0340 0.9817
0.6916 4.0884 -2.0340 0.9817
0.3227 4.1339 -2.0339 0.9817
-0.0487 4.1462 -2.0339 0.9817
-1.5007 3.8653 -2.0339 0.9817
3.0337 2.4836 -2.0340 0.9825
2.7992 2.7452 -2.0340 0.9825
1.9691 3.3903 -2.0340 0.9825
1.6576 3.5530 -2.0340 0.9825
1.3329 3.6871 -2.0340 0.9825
0.9974 3.7916 -2.0340 0.9825
-0.0461 3.9204 -2.0339 0.9825
-0.3968 3.9005 -2.0339 0.9825
-1.7405 3.5130 -2.0339 0.9825
3.0726 2.0857 -2.0340 0.9832
2.8735 2.3524 -2.0340 0.9832
2.6514 2.6002 -2.0340 0.9832
2.4079 2.8272 -2.0340 0.9832
2.1451 3.0314 -2.0340 0.9832
1.8651 3.2113 -2.0340 0.9832
1.5701 3.3654 -2.0340 0.9832
0.9447 3.5914 -2.0339 0.9832
0.6193 3.6616 -2.0339 0.9832
0.2890 3.7023 -2.0339 0.9832
-0.0436 3.7133 -2.0339 0.9832
-0.3759 3.6945 -2.0339 0.9832
-1.0288 3.5682 -2.0339 0.9832
-1.3441 3.4618 -2.0339 0.9832
2.7259 2.2316 -2.0339 0.9839
2.5152 2.4667 -2.0339 0.9839
2.2843 2.6820 -2.0340 0.9839
2.0350 2.8757 -2.0340 0.9839
1.4895 3.1925 -2.0339 0.9839
0.2742 3.5122 -2.0339 0.9839
-0.3566 3.5048 -2.0339 0.9839
-0.9759 3.3850 -2.0339 0.9839
-1.2750 3.2840 -2.0339 0.9839
-1.5639 3.1566 -2.0339 0.9839
