ply
format ascii 1.0
element vertex 219
property float32 x
property float32 y
property float32 z
property float32 I
end_header
2.5897 18.8693 3.3583 0.9256
2.4998 18.2148 2.3942 0.9285
2.5507 18.5856 1.5881 0.9275
2.3821 17.3576 1.0864 0.9322
4.1752 18.0781 -0.1045 0.9285
2.5327 18.4549 -0.1049 0.9282
17.0282 -1.8034 -2.0340 0.9333
16.5624 4.3496 -2.0341 0.9333
16.1011 5.8301 -2.0341 0.9333
15.5078 7.2627 -2.0341 0.9333
12.9894 11.1589 -2.0341 0.9333
8.1907 15.0386 -2.0341 0.9333
6.7967 15.7178 -2.0341 0.9333
5.3470 16.2681 -2.0341 0.9333
3.8534 16.6851 -2.0341 0.9333
2.3283 16.9651 -2.0341 0.9333
0.7841 17.1061 -2.0341 0.9333
14.2756 -1.5119 -2.0340 0.9437
14.3539 -0.2143 -2.0340 0.9437
14.3146 1.0850 -2.0340 0.9437
13.4982 4.8876 -2.0341 0.9437
13.0008 6.0886 -2.0341 0.9437
10.8895 9.3549 -2.0341 0.9437
5.6979 13.1768 -2.0341 0.9437
4.4826 13.6382 -2.0341 0.9437
-1.0085 7.4042 -1.0588 0.9703
12.3454 -0.1844 -2.0340 0.9512
11.9421 3.1362 -2.0340 0.9512
10.6621 6.2267 -2.0341 0.9512
8.5995 8.8602 -2.0341 0.9512
5.9057 10.8433 -2.0341 0.9512
4.9007 11.3330 -2.0341 0.9512
2.7784 12.0305 -2.0341 0.9512
1.6788 12.2324 -2.0341 0.9512
-0.9943 7.3000 -1.2137 0.9706
10.8202 -0.1616 -2.0340 0.9569
10.6723 1.7907 -2.0340 0.9569
10.4666 2.7487 -2.0340 0.9569
10.1751 3.6843 -2.0340 0.9569
9.3448 5.4573 -2.0340 0.9569
8.8128 6.2803 -2.0340 0.9569
6.0145 8.9963 -2.0341 0.9569
5.1760 9.5035 -2.0341 0.9569
4.2952 9.9328 -2.0340 0.9569
2.4352 10.5441 -2.0340 0.9569
0.4955 10.8102 -2.0340 0.9569
-0.3503 7.8161 -1.4706 0.9687
-0.9960 7.3125 -1.3872 0.9704
9.5688 -1.0134 -2.0340 0.9614
9.6213 -0.1437 -2.0340 0.9614
9.5950 0.7273 -2.0340 0.9614
9.3070 2.4442 -2.0340 0.9614
6.7020 6.9050 -2.0340 0.9614
5.3481 7.9996 -2.0340 0.9614
4.6025 8.4505 -2.0340 0.9614
3.8192 8.8322 -2.0340 0.9614
3.0046 9.1415 -2.0340 0.9614
2.1654 9.3758 -2.0340 0.9614
0.4405 9.6124 -2.0340 0.9614
-0.3476 7.7573 -1.6414 0.9688
-0.9866 7.2439 -1.5454 0.9706
8.6062 -0.9115 -2.0340 0.9651
8.6534 -0.1292 -2.0340 0.9651
8.6296 0.6541 -2.0340 0.9651
8.5351 1.4321 -2.0340 0.9651
7.4734 4.3645 -2.0340 0.9651
6.0277 6.2103 -2.0340 0.9651
5.4412 6.7301 -2.0340 0.9651
4.8101 7.1947 -2.0340 0.9651
3.4350 7.9437 -2.0340 0.9651
1.1767 8.5741 -2.0340 0.9651
7.8120 -0.8273 -2.0340 0.9681
7.8548 -0.1173 -2.0340 0.9681
7.7474 1.2999 -2.0340 0.9681
7.3864 2.6746 -2.0340 0.9681
7.1143 3.3318 -2.0340 0.9681
6.7837 3.9617 -2.0340 0.9681
4.3661 6.5307 -2.0340 0.9681
3.7574 6.8989 -2.0340 0.9681
2.4529 7.4630 -2.0340 0.9681
0.3597 7.8475 -2.0340 0.9681
-0.9972 7.3218 -1.9132 0.9699
7.1840 -0.1073 -2.0340 0.9706
7.1643 0.5430 -2.0340 0.9706
6.7557 2.4462 -2.0340 0.9706
5.8512 4.1697 -2.0340 0.9706
5.4500 4.6819 -2.0340 0.9706
4.5172 5.5873 -2.0340 0.9706
3.9933 5.9730 -2.0340 0.9706
3.4366 6.3098 -2.0340 0.9706
2.8517 6.5947 -2.0340 0.9706
1.6168 7.0006 -2.0340 0.9706
0.9769 7.1181 -2.0340 0.9706
-0.9696 7.1191 -2.0340 0.9706
6.5760 -0.6965 -2.0339 0.9727
6.5939 0.4998 -2.0340 0.9727
6.5217 1.0942 -2.0340 0.9727
6.3960 1.6797 -2.0340 0.9727
6.2179 2.2514 -2.0340 0.9727
5.3854 3.8378 -2.0340 0.9727
4.6057 4.7453 -2.0340 0.9727
4.1576 5.1425 -2.0340 0.9727
3.6754 5.4975 -2.0340 0.9727
3.1630 5.8074 -2.0340 0.9727
2.6246 6.0697 -2.0340 0.9727
1.4881 6.4433 -2.0340 0.9727
0.8991 6.5515 -2.0340 0.9727
-0.2960 6.6062 -2.0340 0.9727
-0.8924 6.5523 -2.0340 0.9727
6.1182 -0.0914 -2.0340 0.9745
6.1014 0.4625 -2.0340 0.9745
5.9182 1.5542 -2.0340 0.9745
5.7534 2.0832 -2.0340 0.9745
5.5414 2.5951 -2.0340 0.9745
5.2839 3.0858 -2.0340 0.9745
4.9831 3.5511 -2.0340 0.9745
4.6414 3.9873 -2.0340 0.9745
4.2617 4.3908 -2.0340 0.9745
3.4008 5.0869 -2.0340 0.9745
2.9267 5.3736 -2.0340 0.9745
2.4287 5.6164 -2.0340 0.9745
0.8320 6.0621 -2.0340 0.9745
0.2802 6.1125 -2.0340 0.9745
5.6561 -0.5990 -2.0339 0.9761
5.6093 0.9411 -2.0340 0.9761
5.5012 1.4447 -2.0340 0.9761
5.3479 1.9364 -2.0340 0.9761
4.9115 2.8683 -2.0340 0.9761
4.6319 3.3008 -2.0340 0.9761
4.3143 3.7063 -2.0340 0.9761
3.1611 4.7284 -2.0340 0.9761
2.7205 4.9949 -2.0340 0.9761
1.7759 5.4034 -2.0340 0.9761
0.7733 5.6349 -2.0340 0.9761
0.2604 5.6817 -2.0340 0.9761
-0.7675 5.6356 -2.0340 0.9761
5.2780 -0.5590 -2.0339 0.9775
5.1335 1.3481 -2.0340 0.9775
4.9905 1.8070 -2.0340 0.9775
4.5832 2.6766 -2.0340 0.9775
1.1943 5.1715 -2.0340 0.9775
0.2430 5.3020 -2.0340 0.9775
-0.2376 5.3022 -2.0340 0.9775
-0.7163 5.2590 -2.0340 0.9775
4.9012 0.8223 -2.0340 0.9787
4.5006 2.1077 -2.0340 0.9787
4.2914 2.5062 -2.0340 0.9787
3.4613 3.5662 -2.0340 0.9787
3.1245 3.8646 -2.0340 0.9787
2.3770 4.3644 -2.0340 0.9787
1.9725 4.5615 -2.0340 0.9787
0.6757 4.9235 -2.0340 0.9787
4.6664 -0.0697 -2.0339 0.9798
4.5139 1.1854 -2.0340 0.9798
4.2265 1.9793 -2.0340 0.9798
3.5401 3.0412 -2.0340 0.9798
3.2504 3.3489 -2.0340 0.9798
2.9342 3.6293 -2.0340 0.9798
2.2323 4.0986 -2.0340 0.9798
1.8523 4.2837 -2.0340 0.9798
1.4572 4.4337 -2.0340 0.9798
0.2137 4.6621 -2.0340 0.9798
-0.2089 4.6623 -2.0340 0.9798
-0.6298 4.6243 -2.0339 0.9798
4.3696 -0.4628 -2.0339 0.9808
4.3335 0.7271 -2.0339 0.9808
3.9793 1.8636 -2.0340 0.9808
3.5784 2.5501 -2.0340 0.9808
3.3330 2.8633 -2.0340 0.9808
3.0604 3.1531 -2.0340 0.9808
2.7626 3.4170 -2.0340 0.9808
2.4422 3.6529 -2.0340 0.9808
1.3720 4.1744 -2.0340 0.9808
0.9888 4.2814 -2.0340 0.9808
0.2012 4.3894 -2.0340 0.9808
-0.5930 4.3538 -2.0339 0.9808
4.1460 -0.0619 -2.0339 0.9817
4.1346 0.3134 -2.0339 0.9817
3.8988 1.4117 -2.0339 0.9817
3.1453 2.7020 -2.0340 0.9817
2.6070 3.2245 -2.0340 0.9817
1.2947 3.9392 -2.0340 0.9817
0.9331 4.0401 -2.0340 0.9817
0.5638 4.1080 -2.0340 0.9817
-0.1856 4.1423 -2.0339 0.9817
-0.5595 4.1085 -2.0339 0.9817
2.0770 0.1574 -1.0806 0.9907
2.1018 0.3526 -1.1056 0.9904
3.6864 1.3348 -2.0339 0.9825
3.5506 1.6628 -2.0339 0.9825
2.7307 2.8134 -2.0340 0.9825
2.4650 3.0489 -2.0340 0.9825
1.8753 3.4430 -2.0340 0.9825
1.2242 3.7246 -2.0340 0.9825
0.1795 3.9165 -2.0339 0.9825
-0.1755 3.9167 -2.0339 0.9825
-0.5291 3.8847 -2.0339 0.9825
1.8483 -0.1958 -1.0180 0.9916
1.8515 -0.0277 -1.0142 0.9916
1.8517 0.1403 -1.0171 0.9916
1.8518 0.3107 -1.0284 0.9915
3.4918 1.2643 -2.0339 0.9832
3.3631 1.5750 -2.0339 0.9832
3.2068 1.8728 -2.0339 0.9832
2.8169 2.4199 -2.0340 0.9832
1.4739 3.4085 -2.0340 0.9832
0.5049 3.6791 -2.0339 0.9832
0.1700 3.7097 -2.0339 0.9832
-0.5011 3.6796 -2.0339 0.9832
1.7193 -0.1821 -0.9982 0.9920
1.7247 -0.0258 -0.9958 0.9921
1.7130 0.4499 -1.0226 0.9919
2.6722 2.2956 -2.0339 0.9839
2.4536 2.5280 -2.0339 0.9839
2.2148 2.7395 -2.0340 0.9839
0.7928 3.4325 -2.0339 0.9839
0.4790 3.4902 -2.0339 0.9839
0.1613 3.5192 -2.0339 0.9839
-0.1577 3.5193 -2.0339 0.9839
