ply
format ascii 1.0
element vertex 190
property float32 x
property float32 y
property float32 z
property float32 I
end_header
1.3502 18.2338 2.8010 0.9287
3.1099 18.8912 2.4931 0.9257
2.8427 17.2681 0.6901 0.9323
1.4140 19.0954 0.7550 0.9262
2.9470 17.9013 0.3065 0.9300
-2.1550 7.4086 -0.7407 0.9695
12.1387 12.0788 -2.0341 0.9333
9.8014 14.0421 -2.0341 0.9333
7.1525 15.5591 -2.0341 0.9333
5.7373 16.1346 -2.0341 0.9333
4.2765 16.5816 -2.0341 0.9333
-0.2625 17.1220 -2.0341 0.9333
-2.1346 7.3384 -0.9078 0.9697
-6.2289 15.9503 -2.0340 0.9333
-7.6256 15.3316 -2.0340 0.9334
-10.2262 13.7338 -2.0340 0.9334
10.1764 10.1261 -2.0341 0.9437
8.2169 11.7720 -2.0341 0.9437
7.1349 12.4575 -2.0341 0.9437
4.8098 13.5263 -2.0341 0.9437
3.5852 13.9011 -2.0341 0.9437
2.3320 14.1652 -2.0341 0.9437
-0.2200 14.3541 -2.0341 0.9437
-5.2220 13.3719 -2.0340 0.9437
-6.3929 12.8532 -2.0340 0.9437
-7.5129 12.2321 -2.0340 0.9437
7.9413 9.4546 -2.0341 0.9512
7.0671 10.1248 -2.0341 0.9512
4.1369 11.6336 -2.0341 0.9512
3.0835 11.9559 -2.0341 0.9512
2.0057 12.1831 -2.0341 0.9512
-0.7776 7.4087 -1.2272 0.9703
-1.4245 7.2572 -1.2184 0.9705
-4.4913 11.5009 -2.0340 0.9512
-6.4617 10.5206 -2.0340 0.9512
-7.3736 9.9028 -2.0339 0.9512
6.9602 8.2864 -2.0341 0.9569
6.1939 8.8738 -2.0341 0.9569
4.5200 9.8325 -2.0340 0.9569
3.6257 10.1962 -2.0340 0.9569
2.7025 10.4787 -2.0340 0.9569
-0.1658 10.8202 -2.0340 0.9569
-0.7668 7.3060 -1.3808 0.9705
-2.0898 7.1845 -1.4064 0.9700
-3.9363 10.0799 -2.0340 0.9569
-5.6634 9.2208 -2.0340 0.9569
6.8211 6.7874 -2.0340 0.9614
6.1889 7.3683 -2.0340 0.9614
4.7824 8.3500 -2.0340 0.9614
3.2239 9.0665 -2.0340 0.9614
2.4030 9.3177 -2.0340 0.9614
1.5630 9.4948 -2.0340 0.9614
0.7106 9.5962 -2.0340 0.9614
-0.7630 7.2697 -1.5451 0.9706
-1.3965 7.1149 -1.5327 0.9708
-3.5003 8.9631 -2.0340 0.9614
-4.2852 8.6154 -2.0340 0.9614
-5.0359 8.1992 -2.0339 0.9614
-5.7466 7.7177 -2.0339 0.9614
4.9535 7.0967 -2.0340 0.9651
4.3013 7.5100 -2.0340 0.9651
3.6148 7.8635 -2.0340 0.9651
2.8996 8.1543 -2.0340 0.9651
2.1613 8.3803 -2.0340 0.9651
1.4058 8.5396 -2.0340 0.9651
-0.1327 8.6534 -2.0340 0.9651
-1.4759 7.5196 -1.8010 0.9690
-2.1000 7.2196 -1.7671 0.9696
-3.8541 7.7487 -2.0340 0.9651
5.5686 5.5411 -2.0340 0.9681
1.9618 7.6069 -2.0340 0.9681
1.2761 7.7514 -2.0340 0.9681
-0.1205 7.8548 -2.0340 0.9681
-0.7721 7.3564 -1.9152 0.9699
-2.1941 7.5430 -2.0340 0.9681
-2.8576 7.3174 -2.0340 0.9681
-3.4984 7.0336 -2.0339 0.9681
-4.1113 6.6938 -2.0339 0.9681
4.1124 5.8916 -2.0340 0.9706
3.5709 6.2347 -2.0340 0.9706
0.5306 7.1652 -2.0340 0.9706
-0.1102 7.1840 -2.0340 0.9706
-1.3838 7.0503 -2.0340 0.9706
-2.0067 6.8988 -2.0340 0.9706
-2.6136 6.6925 -2.0340 0.9706
-3.1996 6.4329 -2.0339 0.9706
-3.7602 6.1221 -2.0339 0.9706
-4.2909 5.7626 -2.0339 0.9706
4.6876 4.6645 -2.0340 0.9727
4.2532 5.0637 -2.0340 0.9727
3.2866 5.7384 -2.0340 0.9727
2.2156 6.2307 -2.0340 0.9727
1.6515 6.4033 -2.0340 0.9727
1.0742 6.5251 -2.0340 0.9727
0.4884 6.5948 -2.0340 0.9727
-1.8469 6.3496 -2.0340 0.9727
-2.9449 5.9208 -2.0339 0.9727
-3.4609 5.6348 -2.0339 0.9727
-3.9493 5.3039 -2.0339 0.9727
3.5023 5.0176 -2.0340 0.9745
3.0411 5.3097 -2.0340 0.9745
2.5558 5.5597 -2.0340 0.9745
1.5281 5.9251 -2.0340 0.9745
-0.6387 6.0855 -2.0340 0.9745
-1.1786 6.0043 -2.0340 0.9745
-2.2258 5.6996 -2.0339 0.9745
2.3757 5.1679 -2.0340 0.9761
-0.0872 5.6870 -2.0340 0.9761
-0.5937 5.6566 -2.0340 0.9761
-1.0955 5.5812 -2.0340 0.9761
-1.5886 5.4613 -2.0339 0.9761
-2.0689 5.2980 -2.0339 0.9761
-2.5329 5.0925 -2.0339 0.9761
-2.9767 4.8465 -2.0339 0.9761
-3.3968 4.5619 -2.0339 0.9761
3.0379 4.3523 -2.0340 0.9775
2.6379 4.6057 -2.0340 0.9775
2.2169 4.8225 -2.0340 0.9775
1.7783 5.0009 -2.0340 0.9775
1.3255 5.1394 -2.0340 0.9775
0.3920 5.2931 -2.0340 0.9775
-0.0813 5.3070 -2.0340 0.9775
-2.3636 4.7521 -2.0339 0.9775
-2.7777 4.5226 -2.0339 0.9775
3.5228 3.5054 -2.0340 0.9787
3.1963 3.8054 -2.0340 0.9787
2.8445 4.0752 -2.0340 0.9787
1.6650 4.6825 -2.0340 0.9787
1.2411 4.8122 -2.0340 0.9787
0.8073 4.9037 -2.0340 0.9787
-0.5187 4.9425 -2.0340 0.9787
-0.9572 4.8766 -2.0339 0.9788
-1.3880 4.7718 -2.0339 0.9788
-1.8078 4.6291 -2.0339 0.9788
-2.6009 4.2346 -2.0339 0.9788
2.6712 3.8270 -2.0340 0.9798
2.3195 4.0498 -2.0340 0.9798
1.9493 4.2404 -2.0340 0.9798
1.1655 4.5191 -2.0340 0.9798
0.7581 4.6050 -2.0340 0.9798
0.3446 4.6542 -2.0340 0.9798
-0.8989 4.5796 -2.0339 0.9798
-1.3035 4.4812 -2.0339 0.9798
-1.6977 4.3472 -2.0339 0.9798
-2.4425 3.9767 -2.0339 0.9798
3.1148 3.0994 -2.0340 0.9808
2.8261 3.3647 -2.0340 0.9808
2.1839 3.8130 -2.0340 0.9808
1.4722 4.1401 -2.0340 0.9808
0.7138 4.3357 -2.0340 0.9808
-0.0673 4.3935 -2.0339 0.9808
-0.4587 4.3700 -2.0339 0.9808
-1.5984 4.0930 -2.0339 0.9808
2.9393 2.9248 -2.0340 0.9817
2.6669 3.1751 -2.0340 0.9817
2.3733 3.4001 -2.0340 0.9817
2.0608 3.5981 -2.0340 0.9817
1.7319 3.7675 -2.0340 0.9817
1.3893 3.9068 -2.0340 0.9817
1.0355 4.0151 -2.0340 0.9817
0.6736 4.0914 -2.0340 0.9817
0.3063 4.1351 -2.0339 0.9817
-0.4328 4.1238 -2.0339 0.9817
-0.7986 4.0688 -2.0339 0.9817
-1.1580 3.9814 -2.0339 0.9817
-1.5083 3.8624 -2.0339 0.9817
-2.1701 3.5332 -2.0339 0.9817
2.7792 2.7655 -2.0340 0.9825
1.9486 3.4021 -2.0340 0.9825
-0.0601 3.9202 -2.0339 0.9825
-0.7551 3.8472 -2.0339 0.9825
-1.0950 3.7646 -2.0339 0.9825
-1.4261 3.6520 -2.0339 0.9825
-1.7460 3.5103 -2.0339 0.9825
2.1255 3.0452 -2.0340 0.9832
1.8457 3.2225 -2.0340 0.9832
0.9274 3.5959 -2.0339 0.9832
0.6032 3.6643 -2.0339 0.9832
0.2743 3.7034 -2.0339 0.9832
-0.7153 3.6440 -2.0339 0.9832
-1.6538 3.3250 -2.0339 0.9832
2.4972 2.4849 -2.0339 0.9839
1.7509 3.0570 -2.0339 0.9839
1.4714 3.2009 -2.0339 0.9839
0.5722 3.4761 -2.0339 0.9839
0.2602 3.5133 -2.0339 0.9839
-0.3677 3.5036 -2.0339 0.9839
-0.9839 3.3827 -2.0339 0.9839
-1.2815 3.2815 -2.0339 0.9839
-1.8438 3.0018 -2.0339 0.9839
