ply
format ascii 1.0
element vertex 186
property float32 x
property float32 y
property float32 z
property float32 I
end_header
-12.3857 13.1273 3.1824 0.9293
-11.8718 12.5826 2.6501 0.9324
-11.4823 12.1697 2.1788 0.9347
-11.5287 12.2190 1.4221 0.9348
-12.7774 13.5425 0.7342 0.9282
-11.8753 -8.1428 -0.7302 0.9440
-16.9071 4.9284 -1.2913 0.9318
-11.6574 -7.9933 -1.0364 0.9449
-17.4261 5.0797 -1.7426 0.9297
-11.4797 -7.8715 -1.3363 0.9456
-13.7591 10.1913 -2.0339 0.9334
-14.6056 8.9357 -2.0339 0.9334
-15.9501 6.2252 -2.0338 0.9334
-16.4375 4.7915 -2.0338 0.9334
-16.7964 3.3204 -2.0338 0.9334
-17.0788 -1.2015 -2.0337 0.9334
-16.9057 -2.7058 -2.0337 0.9334
-16.6005 -4.1889 -2.0337 0.9334
-14.9202 -8.3965 -2.0337 0.9334
-13.2092 -10.8915 -2.0337 0.9334
-10.7351 9.5297 -2.0339 0.9437
-12.8586 6.3800 -2.0339 0.9437
-13.3719 5.2189 -2.0338 0.9437
-14.2723 1.5287 -2.0338 0.9437
-14.3514 0.2617 -2.0338 0.9437
-14.3182 -1.0073 -2.0338 0.9437
-14.1732 -2.2685 -2.0338 0.9437
-13.0817 -5.9066 -2.0337 0.9437
-12.5086 -7.0393 -2.0337 0.9437
-11.8377 -8.1170 -2.0337 0.9437
-11.0743 -9.1311 -2.0337 0.9437
-8.4729 8.9801 -2.0339 0.9512
-11.0595 5.4874 -2.0339 0.9512
-11.5009 4.4887 -2.0339 0.9512
-11.8525 3.4550 -2.0338 0.9512
-12.2754 1.3148 -2.0338 0.9512
-12.3435 0.2251 -2.0338 0.9512
-12.1903 -1.9511 -2.0338 0.9512
-11.9702 -3.0205 -2.0338 0.9512
-9.5249 -7.8536 -2.0337 0.9512
-8.0924 7.1837 -2.0339 0.9569
-10.7589 1.1524 -2.0338 0.9569
-10.8186 0.1973 -2.0338 0.9569
-10.7936 -0.7594 -2.0338 0.9569
-10.6843 -1.7101 -2.0338 0.9569
-10.2164 -3.5639 -2.0338 0.9569
-9.8615 -4.4526 -2.0338 0.9569
-9.4295 -5.3065 -2.0338 0.9569
-8.3482 -6.8834 -2.0338 0.9569
-6.6033 6.9987 -2.0339 0.9614
-7.7320 5.7270 -2.0339 0.9614
-9.4390 1.8660 -2.0338 0.9614
-9.6200 0.1754 -2.0338 0.9614
-9.3291 -2.3541 -2.0338 0.9614
-7.9352 -5.4411 -2.0338 0.9614
-6.4719 5.7452 -2.0339 0.9651
-7.7521 3.8464 -2.0339 0.9651
-8.6324 -0.6073 -2.0338 0.9651
-8.5449 -1.3677 -2.0338 0.9651
-8.3906 -2.1173 -2.0338 0.9651
-7.5414 -4.2440 -2.0338 0.9651
-5.3909 5.7137 -2.0339 0.9681
-5.8746 5.2150 -2.0339 0.9681
-6.3124 4.6755 -2.0339 0.9681
-6.7008 4.0995 -2.0339 0.9681
-7.0368 3.4914 -2.0339 0.9681
-7.3176 2.8560 -2.0339 0.9681
-7.5414 2.1983 -2.0339 0.9681
-7.8105 0.8366 -2.0338 0.9681
-7.8357 -0.5513 -2.0338 0.9681
-7.6163 -1.9219 -2.0338 0.9681
-7.1591 -3.2325 -2.0338 0.9681
-5.7733 4.2763 -2.0339 0.9706
-6.6928 2.6121 -2.0339 0.9706
-6.8974 2.0106 -2.0339 0.9706
-7.0480 1.3933 -2.0339 0.9706
-7.1832 0.1310 -2.0338 0.9706
-6.9659 -1.7578 -2.0338 0.9706
-6.7833 -2.3663 -2.0338 0.9706
-5.5430 -4.5704 -2.0338 0.9706
-4.9452 4.3900 -2.0339 0.9727
-5.6406 3.4509 -2.0339 0.9727
-5.9235 2.9391 -2.0339 0.9727
-6.3483 1.8505 -2.0339 0.9727
-6.4869 1.2824 -2.0339 0.9727
-6.5293 -1.0450 -2.0338 0.9727
-6.2434 -2.1780 -2.0338 0.9727
-6.0265 -2.7211 -2.0338 0.9727
-5.7625 -3.2429 -2.0338 0.9727
-4.5758 4.0621 -2.0339 0.9745
-4.9169 3.6419 -2.0339 0.9745
-5.2193 3.1932 -2.0339 0.9745
-5.6999 2.2246 -2.0339 0.9745
-6.0837 0.6516 -2.0339 0.9745
-6.1175 0.1115 -2.0338 0.9745
-6.1035 -0.4294 -2.0338 0.9745
-6.0416 -0.9670 -2.0338 0.9745
-5.9325 -1.4970 -2.0338 0.9745
-5.7771 -2.0153 -2.0338 0.9745
-5.0462 -3.4601 -2.0338 0.9745
-4.7207 -3.8924 -2.0338 0.9745
-4.8516 2.9682 -2.0339 0.9761
-5.2982 2.0679 -2.0339 0.9761
-5.5795 1.1030 -2.0339 0.9761
-5.6550 0.6057 -2.0339 0.9761
-5.6865 0.1037 -2.0339 0.9761
-4.6905 -3.2163 -2.0338 0.9761
-3.9691 3.5235 -2.0339 0.9775
-4.2649 3.1590 -2.0339 0.9775
-4.5273 2.7698 -2.0339 0.9775
-4.9441 1.9297 -2.0339 0.9775
-5.0953 1.4853 -2.0339 0.9775
-5.2066 1.0293 -2.0339 0.9775
-5.1459 -1.2985 -2.0338 0.9775
-4.8370 -2.1840 -2.0338 0.9775
-4.6251 -2.6029 -2.0338 0.9775
-4.3771 -3.0013 -2.0338 0.9775
-4.0948 -3.3763 -2.0338 0.9775
-3.4104 3.6146 -2.0339 0.9788
-3.7164 3.2991 -2.0339 0.9788
-3.9934 2.9579 -2.0339 0.9788
-4.2391 2.5935 -2.0339 0.9788
-4.4516 2.2088 -2.0339 0.9788
-4.6294 1.8068 -2.0339 0.9788
-2.1125 0.2262 -0.8696 0.9909
-4.0984 -2.8103 -2.0338 0.9788
-3.8341 -3.1614 -2.0338 0.9788
-3.2027 3.3945 -2.0339 0.9798
-4.3475 1.6968 -2.0339 0.9798
-2.0326 0.5925 -0.9227 0.9908
-1.9047 0.3765 -0.8462 0.9916
-1.9187 0.0350 -0.8364 0.9917
-1.9159 -0.1348 -0.8371 0.9917
-1.9207 -0.4847 -0.8633 0.9914
-4.4063 -1.5371 -2.0338 0.9798
-4.0669 -2.2887 -2.0338 0.9798
-3.8488 -2.6391 -2.0338 0.9798
-3.0154 3.1960 -2.0339 0.9808
-3.5309 2.6153 -2.0339 0.9808
-3.7482 2.2931 -2.0339 0.9808
-3.9361 1.9530 -2.0339 0.9808
-1.6016 0.3166 -0.7557 0.9928
-1.6081 0.1722 -0.7486 0.9929
-4.0045 -1.8081 -2.0338 0.9808
-3.8291 -2.1549 -2.0338 0.9808
-3.3900 -2.7952 -2.0338 0.9808
-3.1009 2.7527 -2.0339 0.9817
-3.5369 2.1639 -2.0339 0.9817
-3.7143 1.8429 -2.0339 0.9817
-1.2547 0.4897 -0.6607 0.9940
-1.2999 0.3789 -0.6642 0.9940
-1.3533 0.1449 -0.6676 0.9940
-1.3521 -0.0952 -0.6649 0.9940
-1.2716 -0.4436 -0.6606 0.9940
-3.4196 -2.3448 -2.0338 0.9817
-3.1990 -2.6378 -2.0338 0.9817
-2.9319 2.6028 -2.0339 0.9825
-3.1504 2.3335 -2.0339 0.9825
-3.3443 2.0460 -2.0339 0.9825
-3.5120 1.7425 -2.0339 0.9825
-1.1241 0.4387 -0.6260 0.9946
-1.1812 0.2335 -0.6246 0.9946
-1.1918 -0.1908 -0.6262 0.9946
-1.1353 -0.3961 -0.6238 0.9946
-1.1031 -0.4981 -0.6279 0.9946
-3.4166 -1.9227 -2.0338 0.9825
-3.2333 -2.2171 -2.0338 0.9825
-2.5485 2.7010 -2.0339 0.9832
-2.9841 2.2103 -2.0339 0.9832
-0.9837 0.4880 -0.6014 0.9950
-1.0369 0.3022 -0.5915 0.9951
-1.0785 0.1155 -0.5941 0.9951
-1.0783 0.0196 -0.5907 0.9951
-1.0811 -0.0761 -0.5936 0.9951
-1.0264 -0.3581 -0.5954 0.9951
-2.8650 -2.3624 -2.0338 0.9832
-2.4176 2.5624 -2.0339 0.9839
-2.8309 2.0968 -2.0339 0.9839
-3.0050 1.8385 -2.0339 0.9839
-0.9403 0.3670 -0.5828 0.9953
-0.9573 0.2790 -0.5757 0.9954
-0.9875 0.1057 -0.5734 0.9954
-0.9896 0.0180 -0.5715 0.9954
-0.9486 -0.3310 -0.5800 0.9954
-1.0972 -0.6175 -0.7269 0.9942
-2.7179 -2.2410 -2.0339 0.9839
