ply
format ascii 1.0
element vertex 209
property float32 x
property float32 y
property float32 z
property float32 I
end_header
16.1857 -3.7453 -1.5950 0.9354
16.2766 -5.3170 -2.0340 0.9334
16.4329 -3.8024 -2.0036 0.9343
17.1016 -0.8677 -2.0340 0.9333
17.1116 0.6446 -2.0341 0.9333
16.9881 2.1519 -2.0341 0.9333
16.3455 5.1046 -2.0341 0.9333
15.1939 7.8984 -2.0341 0.9333
13.5691 10.4462 -2.0341 0.9333
12.5945 11.6028 -2.0341 0.9333
11.5216 12.6688 -2.0341 0.9333
9.1153 14.4968 -2.0341 0.9333
7.8007 15.2445 -2.0341 0.9333
4.9996 16.3782 -2.0341 0.9333
13.9857 -3.2362 -2.0340 0.9437
14.3371 -0.7274 -2.0340 0.9437
14.0272 3.0537 -2.0341 0.9437
13.7031 4.2794 -2.0341 0.9437
13.2722 5.4718 -2.0341 0.9437
12.7377 6.6215 -2.0341 0.9437
10.5585 9.7271 -2.0341 0.9437
9.6591 10.6207 -2.0341 0.9437
7.6418 12.1532 -2.0341 0.9437
5.3865 13.3072 -2.0341 0.9437
12.0288 -2.7834 -2.0340 0.9512
12.2275 -1.7112 -2.0340 0.9512
12.3310 -0.6257 -2.0340 0.9512
12.3381 0.4648 -2.0340 0.9512
11.7857 3.6806 -2.0340 0.9512
10.9553 5.6950 -2.0341 0.9512
9.7837 7.5321 -2.0341 0.9512
9.0810 8.3660 -2.0341 0.9512
7.4691 9.8320 -2.0341 0.9512
5.6245 10.9918 -2.0341 0.9512
4.6328 11.4451 -2.0341 0.9512
10.5427 -2.4395 -2.0340 0.9569
10.7169 -1.4998 -2.0340 0.9569
10.8075 -0.5484 -2.0340 0.9569
10.8137 0.4073 -2.0340 0.9569
10.5739 2.3019 -2.0340 0.9569
8.5749 6.6014 -2.0340 0.9569
6.5462 8.6172 -2.0341 0.9569
5.7604 9.1611 -2.0341 0.9569
4.9296 9.6337 -2.0341 0.9569
4.0604 10.0310 -2.0340 0.9569
3.1594 10.3502 -2.0340 0.9569
9.1466 -2.9879 -2.0339 0.9614
9.3746 -2.1692 -2.0340 0.9614
9.5295 -1.3336 -2.0340 0.9614
9.4023 2.0468 -2.0340 0.9614
8.8962 3.6677 -2.0340 0.9614
8.5379 4.4383 -2.0340 0.9614
8.1130 5.1743 -2.0340 0.9614
7.6248 5.8700 -2.0340 0.9614
6.4743 7.1189 -2.0340 0.9614
5.1221 8.1461 -2.0340 0.9614
3.6105 8.9196 -2.0340 0.9614
2.8094 9.2034 -2.0340 0.9614
8.2264 -2.6873 -2.0339 0.9651
8.4315 -1.9510 -2.0340 0.9651
8.5709 -1.1995 -2.0340 0.9651
8.5858 1.0876 -2.0340 0.9651
8.4564 1.8409 -2.0340 0.9651
8.2610 2.5799 -2.0340 0.9651
7.6789 3.9918 -2.0340 0.9651
7.2968 4.6538 -2.0340 0.9651
6.8578 5.2795 -2.0340 0.9651
6.3652 5.8640 -2.0340 0.9651
5.8229 6.4027 -2.0340 0.9651
4.6068 7.3265 -2.0340 0.9651
3.9424 7.7045 -2.0340 0.9651
3.2472 8.0223 -2.0340 0.9651
2.5267 8.2775 -2.0340 0.9651
7.7798 -1.0888 -2.0340 0.9681
7.8456 -0.3981 -2.0340 0.9681
7.8501 0.2957 -2.0340 0.9681
7.7935 0.9872 -2.0340 0.9681
7.6759 1.6710 -2.0340 0.9681
5.2855 5.8118 -2.0340 0.9681
4.1816 6.6504 -2.0340 0.9681
3.5785 6.9934 -2.0340 0.9681
6.8295 -2.2310 -2.0339 0.9706
7.1154 -0.9958 -2.0340 0.9706
7.0204 1.5283 -2.0340 0.9706
6.8582 2.1418 -2.0340 0.9706
6.6425 2.7385 -2.0340 0.9706
6.3750 3.3140 -2.0340 0.9706
5.6932 4.3829 -2.0340 0.9706
5.2843 4.8682 -2.0340 0.9706
4.3463 5.7213 -2.0340 0.9706
3.2729 6.3962 -2.0340 0.9706
2.0977 6.8719 -2.0340 0.9706
6.5604 0.8310 -2.0340 0.9727
5.5754 3.5559 -2.0340 0.9727
5.2400 4.0340 -2.0340 0.9727
4.8636 4.4806 -2.0340 0.9727
4.4493 4.8923 -2.0340 0.9727
4.0003 5.2658 -2.0340 0.9727
2.4812 6.1298 -2.0340 0.9727
5.8164 -1.9000 -2.0339 0.9745
5.9614 -1.3794 -2.0339 0.9745
6.0704 0.7689 -2.0340 0.9745
5.9789 1.3016 -2.0340 0.9745
5.8407 1.8240 -2.0340 0.9745
5.4292 2.8223 -2.0340 0.9745
4.8486 3.7327 -2.0340 0.9745
4.5003 4.1460 -2.0340 0.9745
4.1170 4.5269 -2.0340 0.9745
3.2571 5.1801 -2.0340 0.9745
2.7874 5.4472 -2.0340 0.9745
2.2959 5.6719 -2.0340 0.9745
1.7864 5.8524 -2.0340 0.9745
5.4064 -1.7661 -2.0339 0.9761
5.6804 -0.2882 -2.0339 0.9761
5.6837 0.2141 -2.0340 0.9761
5.0466 2.6234 -2.0340 0.9761
4.7954 3.0585 -2.0340 0.9761
4.5069 3.4696 -2.0340 0.9761
4.1832 3.8538 -2.0340 0.9761
3.8268 4.2078 -2.0340 0.9761
3.4406 4.5291 -2.0340 0.9761
2.5909 5.0633 -2.0340 0.9761
2.1341 5.2722 -2.0340 0.9761
1.6606 5.4399 -2.0340 0.9761
5.2563 -0.7356 -2.0339 0.9775
5.3007 -0.2689 -2.0339 0.9775
5.3038 0.1998 -2.0339 0.9775
5.0663 1.5821 -2.0340 0.9775
4.2057 3.2378 -2.0340 0.9775
3.9036 3.5962 -2.0340 0.9775
3.5711 3.9266 -2.0340 0.9775
2.8253 4.4932 -2.0340 0.9775
2.4178 4.7249 -2.0340 0.9775
1.5496 5.0763 -2.0340 0.9775
4.7239 -1.5432 -2.0339 0.9788
4.9661 0.1871 -2.0339 0.9788
4.5945 1.8942 -2.0340 0.9787
4.4095 2.2922 -2.0340 0.9787
4.1900 2.6723 -2.0340 0.9787
3.3437 3.6766 -2.0340 0.9787
3.0063 3.9573 -2.0340 0.9787
2.2638 4.4241 -2.0340 0.9787
1.4509 4.7532 -2.0340 0.9787
4.5468 -1.0521 -2.0339 0.9798
4.6610 -0.2365 -2.0339 0.9798
4.6637 0.1756 -2.0339 0.9798
4.4548 1.3912 -2.0340 0.9798
4.1409 2.1526 -2.0340 0.9798
3.9348 2.5096 -2.0340 0.9798
3.6981 2.8470 -2.0340 0.9798
3.4325 3.1622 -2.0340 0.9798
3.1400 3.4527 -2.0340 0.9798
2.4843 3.9509 -2.0340 0.9798
2.1260 4.1547 -2.0340 0.9798
1.7511 4.3261 -2.0340 0.9798
1.3626 4.4637 -2.0340 0.9798
4.1768 -1.3644 -2.0339 0.9808
4.2935 0.9346 -2.0339 0.9808
4.1943 1.3099 -2.0340 0.9808
3.8988 2.0267 -2.0340 0.9808
3.7047 2.3629 -2.0340 0.9808
3.4818 2.6805 -2.0340 0.9808
2.3390 3.7199 -2.0340 0.9808
1.6487 4.0730 -2.0340 0.9808
3.9414 -1.2875 -2.0339 0.9817
4.0397 -0.9348 -2.0339 0.9817
4.1411 -0.2101 -2.0339 0.9817
4.0516 0.8820 -2.0339 0.9817
3.9580 1.2360 -2.0339 0.9817
3.8335 1.5805 -2.0340 0.9817
3.6791 1.9125 -2.0340 0.9817
3.4960 2.2297 -2.0340 0.9817
3.2857 2.5295 -2.0340 0.9817
2.7898 3.0676 -2.0340 0.9817
1.5558 3.8436 -2.0340 0.9817
3.7268 -1.2174 -2.0339 0.9825
2.0781 -0.1054 -1.0795 0.9907
2.0771 0.0782 -1.0783 0.9907
2.0888 0.2646 -1.0923 0.9906
3.7425 1.1687 -2.0339 0.9825
3.6246 1.4944 -2.0339 0.9825
3.4787 1.8084 -2.0340 0.9825
3.3056 2.1082 -2.0340 0.9825
3.1067 2.3917 -2.0340 0.9825
2.3717 3.1220 -2.0340 0.9825
1.7860 3.4902 -2.0340 0.9825
1.4711 3.6342 -2.0340 0.9825
1.8576 -0.4298 -1.0443 0.9913
1.8528 -0.0940 -1.0161 0.9916
1.8527 0.0698 -1.0154 0.9916
1.8572 0.4043 -1.0410 0.9914
1.8811 0.5874 -1.0793 0.9911
3.2950 1.7129 -2.0339 0.9832
3.1310 1.9969 -2.0339 0.9832
2.7313 2.5162 -2.0340 0.9832
1.9768 3.1438 -2.0340 0.9832
1.6916 3.3059 -2.0340 0.9832
1.3934 3.4423 -2.0340 0.9832
1.0842 3.5518 -2.0339 0.9832
1.7232 -0.5629 -1.0466 0.9917
1.7148 -0.3968 -1.0162 0.9919
1.7241 0.0649 -0.9961 0.9921
2.9702 1.8944 -2.0339 0.9839
2.7915 2.1491 -2.0339 0.9839
2.5910 2.3870 -2.0339 0.9839
2.3703 2.6063 -2.0340 0.9839
2.1311 2.8052 -2.0340 0.9839
1.6048 3.1362 -2.0339 0.9839
1.0286 3.3694 -2.0339 0.9839
