ply
format ascii 1.0
element vertex 214
property float32 x
property float32 y
property float32 z
property float32 I
end_header
3.4675 18.6031 3.3367 0.9260
1.7054 17.6622 2.7183 0.9307
3.4115 18.3032 2.4245 0.9276
3.4657 18.5940 2.0311 0.9267
1.7471 18.0948 1.9521 0.9295
3.3186 17.8047 1.5332 0.9299
3.3985 18.2334 0.3133 0.9285
1.9106 19.7882 0.3358 0.9235
13.5926 9.1866 -0.8320 0.9364
13.4620 9.0983 -1.1914 0.9369
17.0863 1.1329 -2.0341 0.9333
16.6240 4.1079 -2.0341 0.9333
15.6478 6.9559 -2.0341 0.9333
14.9758 8.3045 -2.0341 0.9333
12.2894 11.9255 -2.0341 0.9333
11.1934 12.9597 -2.0341 0.9333
10.0109 13.8935 -2.0341 0.9333
8.7507 14.7197 -2.0341 0.9333
7.4229 15.4319 -2.0341 0.9333
6.0375 16.0247 -2.0341 0.9333
4.6055 16.4933 -2.0341 0.9333
3.1377 16.8343 -2.0341 0.9333
1.6457 17.0448 -2.0341 0.9333
0.1410 17.1234 -2.0341 0.9333
-0.6471 8.0938 -0.9645 0.9678
14.3242 0.9498 -2.0340 0.9437
13.1182 5.8314 -2.0341 0.9437
12.5548 6.9620 -2.0341 0.9437
9.3839 10.8646 -2.0341 0.9437
6.2229 12.9372 -2.0341 0.9437
1.3797 14.2894 -2.0341 0.9437
11.6798 4.0041 -2.0340 0.9512
10.7980 5.9878 -2.0341 0.9512
10.2299 6.9139 -2.0341 0.9512
8.8609 8.5987 -2.0341 0.9512
7.2182 10.0176 -2.0341 0.9512
5.3521 11.1269 -2.0341 0.9512
3.3207 11.8922 -2.0341 0.9512
2.2625 12.1381 -2.0341 0.9512
0.1017 12.3466 -2.0340 0.9512
10.7977 0.7159 -2.0340 0.9569
10.5055 2.5960 -2.0340 0.9569
9.8886 4.3958 -2.0340 0.9569
9.4639 5.2480 -2.0340 0.9569
8.9659 6.0596 -2.0340 0.9569
7.7662 7.5362 -2.0341 0.9569
5.5300 9.3021 -2.0341 0.9569
4.6909 9.7521 -2.0340 0.9569
3.8154 10.1267 -2.0340 0.9569
1.0400 10.7714 -2.0340 0.9569
-0.6109 7.6399 -1.4406 0.9693
9.3415 2.3083 -2.0340 0.9614
9.1025 3.1206 -2.0340 0.9614
8.7930 3.9087 -2.0340 0.9614
7.4680 6.0682 -2.0340 0.9614
6.9057 6.7013 -2.0340 0.9614
6.2899 7.2824 -2.0340 0.9614
5.6253 7.8071 -2.0340 0.9614
4.1711 8.6716 -2.0340 0.9614
3.3927 9.0047 -2.0340 0.9614
2.5879 9.2680 -2.0340 0.9614
1.7632 9.4596 -2.0340 0.9614
8.4018 2.0761 -2.0340 0.9651
8.1868 2.8066 -2.0340 0.9651
7.9083 3.5154 -2.0340 0.9651
7.5687 4.1971 -2.0340 0.9651
6.2109 6.0271 -2.0340 0.9651
5.0594 7.0216 -2.0340 0.9651
4.4225 7.4392 -2.0340 0.9651
3.0513 8.0988 -2.0340 0.9651
1.5858 8.5079 -2.0340 0.9651
0.8318 8.6144 -2.0340 0.9651
0.0712 8.6542 -2.0340 0.9651
-0.5934 7.4223 -1.7500 0.9699
7.8385 0.5197 -2.0340 0.9681
7.4312 2.5476 -2.0340 0.9681
6.5087 4.3989 -2.0340 0.9681
6.0968 4.9540 -2.0340 0.9681
5.6377 5.4708 -2.0340 0.9681
5.1350 5.9452 -2.0340 0.9681
1.4395 7.7228 -2.0340 0.9681
0.7550 7.8194 -2.0340 0.9681
7.1691 0.4754 -2.0340 0.9706
6.7966 2.3301 -2.0340 0.9706
6.5654 2.9185 -2.0340 0.9706
6.2835 3.4844 -2.0340 0.9706
5.9529 4.0232 -2.0340 0.9706
5.5762 4.5310 -2.0340 0.9706
4.2003 5.8293 -2.0340 0.9706
1.3165 7.0632 -2.0340 0.9706
0.0591 7.1846 -2.0340 0.9706
6.5983 0.4375 -2.0340 0.9727
6.4198 1.5863 -2.0340 0.9727
6.2555 2.1446 -2.0340 0.9727
6.0428 2.6862 -2.0340 0.9727
5.7832 3.2070 -2.0340 0.9727
5.4789 3.7029 -2.0340 0.9727
4.3225 5.0046 -2.0340 0.9727
2.8665 5.9594 -2.0340 0.9727
2.3315 6.1882 -2.0340 0.9727
1.7786 6.3693 -2.0340 0.9727
1.2117 6.5009 -2.0340 0.9727
0.6355 6.5822 -2.0340 0.9727
0.0545 6.6126 -2.0340 0.9727
-0.5271 6.5918 -2.0340 0.9727
6.0463 0.9400 -2.0340 0.9745
5.5914 2.4855 -2.0340 0.9745
5.0697 3.4263 -2.0340 0.9745
4.7489 3.8588 -2.0340 0.9745
3.5771 4.9645 -2.0340 0.9745
2.1574 5.7261 -2.0340 0.9745
1.6456 5.8935 -2.0340 0.9745
0.5880 6.0906 -2.0340 0.9745
0.0504 6.1187 -2.0340 0.9745
5.6202 0.8737 -2.0340 0.9761
5.5216 1.3644 -2.0340 0.9761
5.3803 1.8445 -2.0340 0.9761
4.9742 2.7583 -2.0340 0.9761
4.7124 3.1849 -2.0340 0.9761
4.4142 3.5868 -2.0340 0.9761
3.7178 4.3045 -2.0340 0.9761
1.5296 5.4782 -2.0340 0.9761
0.5466 5.6614 -2.0340 0.9761
-0.4533 5.6696 -2.0340 0.9761
5.2960 0.3512 -2.0339 0.9775
5.2446 0.8154 -2.0340 0.9775
5.1526 1.2732 -2.0340 0.9775
4.1192 3.3471 -2.0340 0.9775
3.1029 4.3062 -2.0340 0.9775
2.7122 4.5623 -2.0340 0.9775
1.8713 4.9668 -2.0340 0.9775
0.9726 5.2177 -2.0340 0.9775
0.5101 5.2830 -2.0340 0.9775
0.0437 5.3074 -2.0340 0.9775
-0.4230 5.2907 -2.0340 0.9775
4.8245 1.1921 -2.0340 0.9787
4.5412 2.0187 -2.0340 0.9787
4.1175 2.7828 -2.0340 0.9787
3.5665 3.4609 -2.0340 0.9787
3.2485 3.7611 -2.0340 0.9787
2.9053 4.0321 -2.0340 0.9787
2.1542 4.4785 -2.0340 0.9787
0.9106 4.8855 -2.0340 0.9787
0.4777 4.9466 -2.0340 0.9787
0.0409 4.9695 -2.0340 0.9787
4.6568 0.3088 -2.0339 0.9798
4.6116 0.7169 -2.0339 0.9798
4.5307 1.1196 -2.0340 0.9798
4.2646 1.8957 -2.0340 0.9798
4.0815 2.2633 -2.0340 0.9798
3.8667 2.6133 -2.0340 0.9798
3.0506 3.5320 -2.0340 0.9798
2.7283 3.7865 -2.0340 0.9798
2.3849 4.0116 -2.0340 0.9798
2.0230 4.2058 -2.0340 0.9798
1.2552 4.4950 -2.0340 0.9798
0.0384 4.6668 -2.0340 0.9798
-0.3720 4.6521 -2.0339 0.9798
4.3844 0.2907 -2.0339 0.9808
4.3419 0.6750 -2.0339 0.9808
4.2658 1.0541 -2.0339 0.9808
4.0153 1.7849 -2.0340 0.9808
3.8428 2.1309 -2.0340 0.9808
3.6406 2.4605 -2.0340 0.9808
2.5688 3.5650 -2.0340 0.9808
1.5493 4.1119 -2.0340 0.9808
0.8052 4.3196 -2.0340 0.9808
0.0362 4.3939 -2.0339 0.9808
4.1374 0.2743 -2.0339 0.9817
4.0973 0.6370 -2.0339 0.9817
4.0254 0.9947 -2.0339 0.9817
3.7890 1.6843 -2.0340 0.9817
3.2181 2.6149 -2.0340 0.9817
2.9757 2.8876 -2.0340 0.9817
2.7104 3.1380 -2.0340 0.9817
1.4620 3.8802 -2.0340 0.9817
1.1152 3.9937 -2.0340 0.9817
0.3985 4.1273 -2.0340 0.9817
0.0342 4.1463 -2.0339 0.9817
2.0988 0.3263 -1.1019 0.9905
3.8061 0.9405 -2.0339 0.9825
3.4288 1.9013 -2.0340 0.9825
3.2484 2.1954 -2.0340 0.9825
2.8136 2.7304 -2.0340 0.9825
2.5628 2.9671 -2.0340 0.9825
1.0545 3.7762 -2.0340 0.9825
0.7184 3.8543 -2.0339 0.9825
0.3768 3.9025 -2.0339 0.9825
1.8523 0.1228 -1.0167 0.9916
1.8494 0.2875 -1.0251 0.9915
3.2477 1.8009 -2.0339 0.9832
2.8821 2.3419 -2.0340 0.9832
2.6650 2.5862 -2.0340 0.9832
2.4274 2.8104 -2.0340 0.9832
2.1710 3.0129 -2.0340 0.9832
1.8977 3.1921 -2.0340 0.9832
1.3093 3.4751 -2.0340 0.9832
0.9987 3.5768 -2.0339 0.9832
0.6805 3.6507 -2.0339 0.9832
0.0306 3.7134 -2.0339 0.9832
-0.2960 3.7017 -2.0339 0.9832
1.7231 0.1142 -0.9970 0.9921
1.7141 0.2664 -1.0015 0.9920
1.7142 0.4236 -1.0195 0.9919
3.0809 1.7084 -2.0339 0.9839
2.9188 1.9727 -2.0339 0.9839
2.7341 2.2216 -2.0339 0.9839
2.3028 2.6661 -2.0340 0.9839
2.0595 2.8582 -2.0340 0.9839
1.8003 3.0282 -2.0339 0.9839
1.2421 3.2967 -2.0339 0.9839
0.6455 3.4632 -2.0339 0.9839
0.0290 3.5228 -2.0339 0.9839
-0.2807 3.5116 -2.0339 0.9839
