ply
format ascii 1.0
element vertex 179
property float32 x
property float32 y
property float32 z
property float32 I
end_header
2.9749 18.5481 3.3123 0.9265
1.3407 18.9415 2.4728 0.9263
2.8240 17.6077 1.9149 0.9308
1.3436 18.9823 1.6109 0.9265
1.3411 18.9480 1.1779 0.9267
2.8607 17.8364 0.3051 0.9303
-1.5089 7.6618 -0.7497 0.9691
-2.1530 7.4091 -0.7407 0.9695
12.0140 12.2028 -2.0341 0.9333
9.6814 14.1250 -2.0341 0.9333
8.3971 14.9243 -2.0341 0.9333
7.0472 15.6071 -2.0341 0.9333
5.6423 16.1681 -2.0341 0.9333
4.1934 16.6029 -2.0341 0.9333
1.2091 17.0813 -2.0341 0.9333
-0.3031 17.1213 -2.0341 0.9333
-0.7994 7.5079 -0.8969 0.9700
-1.4861 7.5463 -0.9136 0.9695
-6.2107 15.9574 -2.0340 0.9333
-7.5948 15.3469 -2.0340 0.9334
-8.9195 14.6166 -2.0340 0.9334
-10.1745 13.7723 -2.0340 0.9334
9.1297 11.0791 -2.0341 0.9437
7.0396 12.5116 -2.0341 0.9437
5.9080 13.0840 -2.0341 0.9437
1.0136 14.3200 -2.0341 0.9437
-2.1150 7.2782 -1.0739 0.9698
-5.2068 13.3778 -2.0340 0.9437
-6.3670 12.8660 -2.0340 0.9437
-7.4776 12.2538 -2.0340 0.9437
-8.5298 11.5460 -2.0340 0.9437
8.6625 8.7986 -2.0341 0.9512
7.8522 9.5288 -2.0341 0.9512
6.9807 10.1846 -2.0341 0.9512
6.0546 10.7609 -2.0341 0.9512
3.0236 11.9712 -2.0341 0.9512
-1.4254 7.2379 -1.2153 0.9705
-2.1097 7.2599 -1.2455 0.9698
-7.3362 9.9305 -2.0339 0.9512
6.1181 8.9262 -2.0341 0.9569
3.5657 10.2173 -2.0340 0.9569
-0.1915 10.8198 -2.0340 0.9569
-1.4097 7.1587 -1.3714 0.9707
-2.0878 7.1846 -1.4063 0.9700
-5.6367 9.2371 -2.0340 0.9569
-6.4299 8.7036 -2.0339 0.9569
3.1705 9.0853 -2.0340 0.9614
2.3564 9.3296 -2.0340 0.9614
0.6794 9.5985 -2.0340 0.9614
-0.1704 9.6210 -2.0340 0.9614
-0.7748 7.2775 -1.5470 0.9705
-5.0122 8.2137 -2.0339 0.9614
-5.7175 7.7393 -2.0339 0.9614
5.5038 6.6790 -2.0340 0.9651
4.2438 7.5426 -2.0340 0.9651
3.5616 7.8877 -2.0340 0.9651
1.3705 8.5453 -2.0340 0.9651
0.6111 8.6329 -2.0340 0.9651
-0.1532 8.6531 -2.0340 0.9651
-0.7747 7.2760 -1.7197 0.9704
-1.4808 7.5198 -1.8013 0.9690
-3.1389 8.0650 -2.0340 0.9651
-3.8385 7.7565 -2.0340 0.9651
-5.1423 6.9607 -2.0339 0.9651
5.5114 5.5980 -2.0340 0.9681
4.4413 6.4798 -2.0340 0.9681
3.2329 7.1597 -2.0340 0.9681
2.5884 7.4171 -2.0340 0.9681
1.9237 7.6166 -2.0340 0.9681
1.2441 7.7566 -2.0340 0.9681
-2.8493 7.3206 -2.0340 0.9681
-4.0920 6.7056 -2.0339 0.9681
4.5692 5.5448 -2.0340 0.9706
3.5232 6.2618 -2.0340 0.9706
1.7595 6.9662 -2.0340 0.9706
0.5073 7.1669 -2.0340 0.9706
-0.1271 7.1837 -2.0340 0.9706
-2.6060 6.6955 -2.0340 0.9706
-4.2691 5.7787 -2.0339 0.9706
4.6395 4.7124 -2.0340 0.9727
3.7386 5.4546 -2.0340 0.9727
3.2427 5.7633 -2.0340 0.9727
1.6194 6.4116 -2.0340 0.9727
0.4669 6.5963 -2.0340 0.9727
-0.7001 6.5757 -2.0340 0.9727
-1.2777 6.4882 -2.0340 0.9727
-1.8453 6.3501 -2.0340 0.9727
-2.3985 6.1625 -2.0339 0.9727
-2.9330 5.9267 -2.0339 0.9727
-3.4446 5.6447 -2.0339 0.9727
-3.9293 5.3187 -2.0339 0.9727
3.4594 5.0472 -2.0340 0.9745
3.0005 5.3329 -2.0340 0.9745
1.4984 5.9327 -2.0340 0.9745
0.9690 6.0417 -2.0340 0.9745
-0.1083 6.1180 -2.0340 0.9745
-1.7075 5.8758 -2.0340 0.9745
-2.2193 5.7022 -2.0339 0.9745
-2.7139 5.4841 -2.0339 0.9745
3.6171 4.3894 -2.0340 0.9761
2.7890 4.9570 -2.0340 0.9761
1.3928 5.5146 -2.0340 0.9761
0.9007 5.6159 -2.0340 0.9761
-0.1007 5.6868 -2.0340 0.9761
-1.0989 5.5805 -2.0340 0.9761
-1.5871 5.4617 -2.0339 0.9761
-2.0629 5.3003 -2.0339 0.9761
3.7237 3.7822 -2.0340 0.9775
3.0007 4.3779 -2.0340 0.9775
2.6026 4.6257 -2.0340 0.9775
1.7488 5.0112 -2.0340 0.9775
1.2997 5.1460 -2.0340 0.9775
0.3747 5.2943 -2.0340 0.9775
-0.0939 5.3067 -2.0340 0.9775
-0.5619 5.2777 -2.0340 0.9775
-1.0255 5.2075 -2.0339 0.9775
-1.9251 4.9461 -2.0339 0.9775
-2.3540 4.7569 -2.0339 0.9775
-3.1537 4.2689 -2.0339 0.9775
2.8096 4.0992 -2.0340 0.9787
2.4369 4.3312 -2.0340 0.9787
1.6375 4.6922 -2.0340 0.9787
0.7870 4.9070 -2.0340 0.9787
-0.9602 4.8760 -2.0339 0.9788
-1.8025 4.6312 -2.0339 0.9788
-2.2042 4.4540 -2.0339 0.9788
-2.5886 4.2421 -2.0339 0.9788
-2.9529 3.9971 -2.0339 0.9788
2.9680 3.6017 -2.0340 0.9798
2.6386 3.8496 -2.0340 0.9798
1.5377 4.4064 -2.0340 0.9798
1.1429 4.5249 -2.0340 0.9798
0.7391 4.6081 -2.0340 0.9798
0.3295 4.6553 -2.0340 0.9798
-1.3023 4.4816 -2.0339 0.9798
3.0828 3.1312 -2.0340 0.9808
2.7944 3.3911 -2.0340 0.9808
2.4843 3.6245 -2.0340 0.9808
2.1546 3.8296 -2.0340 0.9808
1.4478 4.1487 -2.0340 0.9808
1.0760 4.2603 -2.0340 0.9808
0.3102 4.3831 -2.0340 0.9808
-0.0777 4.3934 -2.0339 0.9808
-1.2261 4.2195 -2.0339 0.9808
-2.2888 3.7508 -2.0339 0.9808
-2.6109 3.5342 -2.0339 0.9808
2.0333 3.6138 -2.0340 0.9817
0.6566 4.0941 -2.0340 0.9817
0.2928 4.1361 -2.0339 0.9817
-0.0734 4.1458 -2.0339 0.9817
-0.8012 4.0683 -2.0339 0.9817
-1.1571 3.9817 -2.0339 0.9817
-1.5039 3.8641 -2.0339 0.9817
1.9225 3.4169 -2.0340 0.9825
0.9602 3.8013 -2.0340 0.9825
-0.0694 3.9200 -2.0339 0.9825
-0.4151 3.8986 -2.0339 0.9825
-1.0941 3.7648 -2.0339 0.9825
-1.4220 3.6536 -2.0339 0.9825
-1.7389 3.5138 -2.0339 0.9825
-2.3296 3.1534 -2.0339 0.9825
2.6054 2.6463 -2.0340 0.9832
2.0995 3.0631 -2.0340 0.9832
1.8210 3.2365 -2.0340 0.9832
0.9094 3.6005 -2.0339 0.9832
0.5881 3.6667 -2.0339 0.9832
0.2622 3.7043 -2.0339 0.9832
-0.0657 3.7130 -2.0339 0.9832
-1.3469 3.4606 -2.0339 0.9832
-2.2066 2.9868 -2.0339 0.9832
1.9917 2.9059 -2.0340 0.9839
1.7275 3.0703 -2.0339 0.9839
1.1607 3.3262 -2.0339 0.9839
0.5579 3.4784 -2.0339 0.9839
0.2488 3.5141 -2.0339 0.9839
-0.9830 3.3829 -2.0339 0.9839
-1.5625 3.1574 -2.0339 0.9839
-1.8350 3.0071 -2.0339 0.9839
-2.0933 2.8335 -2.0339 0.9839
