ply
format ascii 1.0
element vertex 184
property float32 x
property float32 y
property float32 z
property float32 I
end_header
-11.7318 -8.5049 -0.7349 0.9436
-13.3425 -7.9770 -1.4924 0.9394
-11.2699 -8.1700 -1.6535 0.9455
-12.9198 -11.2333 -2.0337 0.9334
-11.8773 -12.3303 -2.0337 0.9334
-10.7420 -13.3310 -2.0337 0.9334
-9.5229 -14.2275 -2.0337 0.9334
-8.2293 -15.0129 -2.0337 0.9334
-2.5202 -16.9342 -2.0337 0.9334
-13.4232 -5.0832 -2.0337 0.9437
-12.3195 -7.3654 -2.0337 0.9437
-10.8315 -9.4177 -2.0337 0.9437
-9.0058 -11.1764 -2.0337 0.9437
-7.9837 -11.9279 -2.0337 0.9437
-6.8992 -12.5864 -2.0337 0.9437
-3.3582 -13.9550 -2.0337 0.9437
0.4177 -14.3475 -2.0337 0.9437
1.6831 -14.2546 -2.0338 0.9437
-11.5452 -4.3721 -2.0338 0.9512
-11.1140 -5.3745 -2.0337 0.9512
-9.3162 -8.1001 -2.0337 0.9512
-7.7459 -9.6127 -2.0337 0.9512
-6.8668 -10.2591 -2.0337 0.9512
-5.9340 -10.8254 -2.0337 0.9512
-4.9548 -11.3072 -2.0337 0.9512
-2.8884 -12.0026 -2.0337 0.9512
-0.7318 -12.3236 -2.0338 0.9512
0.3593 -12.3402 -2.0338 0.9512
-10.1189 -3.8320 -2.0338 0.9569
-9.7410 -4.7105 -2.0338 0.9569
-7.5064 -7.7928 -2.0337 0.9569
-6.7889 -8.4252 -2.0337 0.9569
-4.3427 -9.9104 -2.0338 0.9569
-0.6414 -10.8012 -2.0338 0.9569
0.3149 -10.8157 -2.0338 0.9569
1.2688 -10.7457 -2.0338 0.9569
-8.9979 -3.4074 -2.0338 0.9614
-8.2580 -4.9372 -2.0338 0.9614
-7.2607 -6.3129 -2.0338 0.9614
-6.0369 -7.4918 -2.0338 0.9614
-3.8616 -8.8124 -2.0338 0.9614
-1.4162 -9.5166 -2.0338 0.9614
0.2800 -9.6175 -2.0338 0.9614
1.1282 -9.5552 -2.0338 0.9614
-8.0928 -3.0647 -2.0338 0.9651
-7.4274 -4.4406 -2.0338 0.9651
-6.0034 -6.2324 -2.0338 0.9651
-4.8134 -7.1913 -2.0338 0.9651
-4.1596 -7.5883 -2.0338 0.9651
-3.4732 -7.9260 -2.0338 0.9651
-2.7597 -8.2017 -2.0338 0.9651
-2.0247 -8.4134 -2.0338 0.9651
-1.2738 -8.5593 -2.0338 0.9651
-0.5130 -8.6384 -2.0338 0.9651
1.3012 -6.2287 -1.4955 0.9742
-7.0716 -3.4197 -2.0338 0.9681
-6.7420 -4.0308 -2.0338 0.9681
-5.9277 -5.1539 -2.0338 0.9681
-3.7757 -6.8880 -2.0338 0.9681
-3.1527 -7.1945 -2.0338 0.9681
-1.8379 -7.6370 -2.0338 0.9681
-1.1562 -7.7695 -2.0338 0.9681
0.2286 -7.8518 -2.0338 0.9681
0.9211 -7.8009 -2.0338 0.9681
-6.4677 -3.1276 -2.0338 0.9706
-6.1662 -3.6866 -2.0338 0.9706
-5.8166 -4.2167 -2.0338 0.9706
-5.4215 -4.7138 -2.0338 0.9706
-4.5077 -5.5941 -2.0338 0.9706
-1.6809 -6.9848 -2.0338 0.9706
-0.4259 -7.1717 -2.0338 0.9706
0.2091 -7.1813 -2.0338 0.9706
0.8424 -7.1348 -2.0338 0.9706
1.4692 -7.0325 -2.0338 0.9706
-6.1838 -2.3418 -2.0338 0.9727
-5.9529 -2.8787 -2.0338 0.9727
-5.3536 -3.8810 -2.0338 0.9727
-4.5873 -4.7623 -2.0338 0.9727
-0.9734 -6.5404 -2.0338 0.9727
-0.3920 -6.6008 -2.0338 0.9727
0.1924 -6.6096 -2.0338 0.9727
0.7754 -6.5668 -2.0338 0.9727
1.3522 -6.4727 -2.0338 0.9727
-5.5082 -2.6637 -2.0338 0.9745
-5.2515 -3.1397 -2.0338 0.9745
-4.9537 -3.5912 -2.0338 0.9745
-4.6173 -4.0146 -2.0338 0.9745
-4.2447 -4.4067 -2.0338 0.9745
-3.8390 -4.7642 -2.0338 0.9745
-3.4033 -5.0846 -2.0338 0.9745
-1.9512 -5.7990 -2.0338 0.9745
-1.4316 -5.9487 -2.0338 0.9745
-0.3627 -6.1078 -2.0338 0.9745
0.1781 -6.1159 -2.0338 0.9745
-5.3187 -2.0142 -2.0338 0.9761
-5.1200 -2.4760 -2.0338 0.9761
-4.8814 -2.9184 -2.0338 0.9761
-4.6047 -3.3381 -2.0338 0.9761
-3.9455 -4.0961 -2.0338 0.9761
-3.5685 -4.4285 -2.0338 0.9761
-3.1634 -4.7263 -2.0338 0.9761
-1.8137 -5.3904 -2.0338 0.9761
-0.8372 -5.6254 -2.0338 0.9761
-0.3371 -5.6773 -2.0338 0.9761
0.1655 -5.6850 -2.0338 0.9761
0.6669 -5.6481 -2.0338 0.9761
-4.5552 -2.7234 -2.0338 0.9775
-4.2970 -3.1150 -2.0338 0.9775
-3.3300 -4.1326 -2.0338 0.9775
-2.9521 -4.4104 -2.0338 0.9775
-2.5511 -4.6539 -2.0338 0.9775
-1.6926 -5.0302 -2.0338 0.9775
-1.2417 -5.1600 -2.0338 0.9775
-0.7812 -5.2495 -2.0338 0.9775
0.1544 -5.3050 -2.0338 0.9775
0.6223 -5.2707 -2.0338 0.9775
-4.6473 -1.7599 -2.0338 0.9788
-4.4738 -2.1634 -2.0338 0.9788
-4.2652 -2.5500 -2.0338 0.9788
-4.0234 -2.9167 -2.0338 0.9788
-3.1180 -3.8695 -2.0338 0.9788
-0.2946 -4.9607 -2.0338 0.9788
0.1446 -4.9673 -2.0338 0.9788
0.5827 -4.9351 -2.0339 0.9788
-4.3643 -1.6527 -2.0338 0.9798
-4.0054 -2.3947 -2.0338 0.9798
-3.7783 -2.7391 -2.0338 0.9798
-3.5217 -3.0620 -2.0338 0.9798
-3.2375 -3.3610 -2.0338 0.9798
-2.9281 -3.6338 -2.0338 0.9798
-2.5958 -3.8782 -2.0338 0.9798
-2.2432 -4.0923 -2.0338 0.9798
-1.8730 -4.2744 -2.0338 0.9798
-0.6870 -4.6159 -2.0338 0.9798
-0.2767 -4.6586 -2.0338 0.9798
0.1358 -4.6648 -2.0338 0.9798
0.5472 -4.6346 -2.0339 0.9798
-4.1091 -1.5561 -2.0338 0.9808
-3.7712 -2.2547 -2.0338 0.9808
-3.5573 -2.5789 -2.0338 0.9808
-3.0483 -3.1645 -2.0338 0.9808
-2.7569 -3.4213 -2.0338 0.9808
-2.4440 -3.6514 -2.0338 0.9808
-2.1120 -3.8530 -2.0338 0.9808
-0.6468 -4.3460 -2.0338 0.9808
-0.2605 -4.3861 -2.0338 0.9808
0.5152 -4.3636 -2.0339 0.9808
0.8986 -4.3010 -2.0339 0.9808
-1.2584 -0.4766 -0.6600 0.9940
-2.8765 -2.9862 -2.0338 0.9817
-2.6016 -3.2285 -2.0338 0.9817
-1.6641 -3.7977 -2.0338 0.9817
-1.3223 -3.9298 -2.0338 0.9817
-0.2458 -4.1390 -2.0339 0.9817
0.1206 -4.1446 -2.0339 0.9817
0.8479 -4.0587 -2.0339 0.9817
-1.1275 -0.4270 -0.6255 0.9946
-2.7198 -2.8236 -2.0338 0.9825
-2.4598 -3.0527 -2.0338 0.9825
-2.1807 -3.2580 -2.0338 0.9825
-1.2503 -3.7158 -2.0338 0.9825
-0.9173 -3.8116 -2.0338 0.9825
-0.2324 -3.9136 -2.0339 0.9825
0.4597 -3.8935 -2.0339 0.9825
0.8017 -3.8377 -2.0339 0.9825
-1.0191 -0.3859 -0.5968 0.9950
-0.9876 -0.4776 -0.6008 0.9950
-3.1872 -1.9055 -2.0339 0.9832
-3.0064 -2.1795 -2.0339 0.9832
-2.5762 -2.6745 -2.0338 0.9832
-2.0655 -3.0860 -2.0338 0.9832
0.1080 -3.7119 -2.0339 0.9832
0.7593 -3.6350 -2.0339 0.9832
-0.9428 -0.3571 -0.5820 0.9954
-0.9169 -0.4434 -0.5880 0.9953
-3.0236 -1.8077 -2.0339 0.9839
-2.6584 -2.3114 -2.0339 0.9839
-2.2103 -2.7430 -2.0339 0.9839
-1.6933 -3.0891 -2.0339 0.9839
-1.1234 -3.3388 -2.0339 0.9839
-0.5186 -3.4844 -2.0339 0.9839
0.1025 -3.5213 -2.0339 0.9839
0.4130 -3.4985 -2.0339 0.9839
0.7204 -3.4483 -2.0339 0.9839
