ply
format ascii 1.0
element vertex 193
property float32 x
property float32 y
property float32 z
property float32 I
end_header
-16.2880 -5.2743 -2.0337 0.9334
-15.0919 -8.0838 -2.0337 0.9334
-11.7934 -7.7444 -1.6759 0.9448
-13.4157 -10.6362 -2.0337 0.9334
-12.4136 -11.7902 -2.0337 0.9334
-8.8500 -14.6555 -2.0337 0.9334
-7.5078 -15.3864 -2.0337 0.9334
-4.6552 -16.4755 -2.0337 0.9334
-3.1674 -16.8251 -2.0337 0.9334
-1.6543 -17.0405 -2.0337 0.9334
-0.1281 -17.1203 -2.0337 0.9334
1.3991 -17.0636 -2.0337 0.9334
-13.6554 -4.4219 -2.0337 0.9437
-13.2066 -5.6220 -2.0337 0.9437
-11.2473 -8.9171 -2.0337 0.9437
-10.4073 -9.8846 -2.0337 0.9437
-9.4843 -10.7733 -2.0337 0.9437
-7.4196 -12.2868 -2.0337 0.9437
-5.1189 -13.4095 -2.0337 0.9437
-3.9027 -13.8126 -2.0337 0.9437
-1.3869 -14.2863 -2.0337 0.9437
-0.1074 -14.3531 -2.0337 0.9437
2.4441 -14.1441 -2.0338 0.9437
1.7234 -6.4681 -0.9484 0.9733
-10.3191 -6.7763 -2.0337 0.9512
-9.6737 -7.6696 -2.0337 0.9512
-8.9513 -8.5016 -2.0337 0.9512
-7.2986 -9.9566 -2.0337 0.9512
-6.3816 -10.5678 -2.0337 0.9512
-5.4137 -11.0948 -2.0337 0.9512
-4.4028 -11.5334 -2.0337 0.9512
-3.3567 -11.8801 -2.0337 0.9512
2.1021 -12.1652 -2.0338 0.9512
1.6488 -6.1881 -1.0550 0.9744
-10.2939 -3.3334 -2.0338 0.9569
-9.9557 -4.2380 -2.0338 0.9569
-9.5380 -5.1090 -2.0338 0.9569
-7.8455 -7.4514 -2.0337 0.9569
-7.1497 -8.1213 -2.0337 0.9569
-6.3970 -8.7266 -2.0337 0.9569
-3.8589 -10.1086 -2.0338 0.9569
-2.9420 -10.4125 -2.0338 0.9569
0.8843 -10.7841 -2.0338 0.9569
1.8425 -10.6623 -2.0338 0.9569
1.6100 -6.0421 -1.1753 0.9749
-8.4813 -4.5430 -2.0338 0.9614
-8.0424 -5.2812 -2.0338 0.9614
-6.9763 -6.6259 -2.0338 0.9614
-6.3576 -7.2217 -2.0338 0.9614
-5.6883 -7.7598 -2.0338 0.9614
-4.2193 -8.6469 -2.0338 0.9614
-3.4314 -8.9887 -2.0338 0.9614
-2.6161 -9.2589 -2.0338 0.9614
-0.9297 -9.5765 -2.0338 0.9614
-0.0720 -9.6213 -2.0338 0.9614
0.7863 -9.5894 -2.0338 0.9614
-7.9622 -3.3895 -2.0338 0.9651
-7.2334 -4.7500 -2.0338 0.9651
-6.7810 -5.3761 -2.0338 0.9651
-5.7181 -6.4952 -2.0338 0.9651
-4.4733 -7.4077 -2.0338 0.9651
-3.7949 -7.7771 -2.0338 0.9651
-3.0862 -8.0845 -2.0338 0.9651
-2.3530 -8.3276 -2.0338 0.9651
0.7072 -8.6247 -2.0338 0.9651
1.5835 -5.9427 -1.4454 0.9750
-7.2274 -3.0767 -2.0338 0.9681
-6.1552 -4.8800 -2.0338 0.9681
-5.6955 -5.4094 -2.0338 0.9681
-5.1904 -5.8958 -2.0338 0.9681
-4.6439 -6.3352 -2.0338 0.9681
-2.8014 -7.3385 -2.0338 0.9681
0.6419 -7.8288 -2.0338 0.9681
-6.8348 -2.2133 -2.0338 0.9706
-6.6102 -2.8139 -2.0338 0.9706
-6.3330 -3.3922 -2.0338 0.9706
-6.0052 -3.9435 -2.0338 0.9706
-5.2091 -4.9475 -2.0338 0.9706
-4.7472 -5.3923 -2.0338 0.9706
-4.2474 -5.7942 -2.0338 0.9706
-3.1505 -6.4566 -2.0338 0.9706
-2.5622 -6.7118 -2.0338 0.9706
-1.3291 -7.0602 -2.0338 0.9706
-0.6942 -7.1507 -2.0338 0.9706
0.5871 -7.1603 -2.0338 0.9706
1.2233 -7.0794 -2.0338 0.9706
-6.2907 -2.0371 -2.0338 0.9727
-5.8288 -3.1222 -2.0338 0.9727
-5.5272 -3.6296 -2.0338 0.9727
-5.1815 -4.1080 -2.0338 0.9727
-3.9093 -5.3330 -2.0338 0.9727
-3.4181 -5.6603 -2.0338 0.9727
-2.8997 -5.9426 -2.0338 0.9727
-1.7980 -6.3632 -2.0338 0.9727
-0.0495 -6.6122 -2.0338 0.9727
1.1260 -6.5159 -2.0338 0.9727
-5.3934 -2.8890 -2.0338 0.9745
-5.1144 -3.3585 -2.0338 0.9745
-4.7945 -3.8012 -2.0338 0.9745
-4.4364 -4.2136 -2.0338 0.9745
-2.6832 -5.4988 -2.0338 0.9745
-2.1821 -5.7162 -2.0338 0.9745
-0.0458 -6.1184 -2.0338 0.9745
0.5000 -6.0981 -2.0338 0.9745
1.0418 -6.0292 -2.0338 0.9745
-5.4107 -1.7521 -2.0338 0.9761
-5.0134 -2.6854 -2.0338 0.9761
-4.4566 -3.5333 -2.0338 0.9761
-4.1237 -3.9166 -2.0338 0.9761
-3.7580 -4.2688 -2.0338 0.9761
-3.3624 -4.5869 -2.0338 0.9761
-2.9400 -4.8685 -2.0338 0.9761
-1.0522 -5.5892 -2.0338 0.9761
0.4648 -5.6683 -2.0338 0.9761
0.9684 -5.6043 -2.0338 0.9761
-4.8832 -2.0787 -2.0338 0.9775
-4.6784 -2.5060 -2.0338 0.9775
-4.1588 -3.2972 -2.0338 0.9775
-3.5069 -3.9835 -2.0338 0.9775
-3.1377 -4.2804 -2.0338 0.9775
-2.7435 -4.5431 -2.0338 0.9775
-2.3274 -4.7697 -2.0338 0.9775
-1.4431 -5.1073 -2.0338 0.9775
-0.0397 -5.3071 -2.0338 0.9775
0.9037 -5.2298 -2.0338 0.9775
1.3665 -5.1284 -2.0339 0.9775
-4.5723 -1.9464 -2.0338 0.9788
-4.1538 -2.7277 -2.0338 0.9788
-3.8940 -3.0873 -2.0338 0.9788
-3.6032 -3.4222 -2.0338 0.9788
-3.2836 -3.7299 -2.0338 0.9788
-2.9380 -4.0079 -2.0338 0.9788
-2.5688 -4.2539 -2.0338 0.9788
-2.1792 -4.4661 -2.0338 0.9788
-1.7723 -4.6426 -2.0338 0.9788
-1.3512 -4.7821 -2.0338 0.9788
0.4061 -4.9528 -2.0338 0.9788
0.8462 -4.8969 -2.0339 0.9788
-3.9008 -2.5616 -2.0338 0.9798
-3.6568 -2.8993 -2.0338 0.9798
-3.0837 -3.5028 -2.0338 0.9798
-2.7590 -3.7638 -2.0338 0.9798
-2.4124 -3.9948 -2.0338 0.9798
-0.8634 -4.5862 -2.0338 0.9798
0.3814 -4.6512 -2.0339 0.9798
-4.0428 -1.7210 -2.0338 0.9808
-3.6727 -2.4118 -2.0338 0.9808
-3.1859 -3.0259 -2.0338 0.9808
-2.9034 -3.2979 -2.0338 0.9808
-1.5670 -4.1049 -2.0338 0.9808
-0.8129 -4.3180 -2.0338 0.9808
-0.4246 -4.3733 -2.0338 0.9808
-0.0329 -4.3937 -2.0339 0.9808
0.3591 -4.3792 -2.0339 0.9808
1.1313 -4.2458 -2.0339 0.9808
-3.0064 -2.8554 -2.0338 0.9817
-2.4513 -3.3440 -2.0338 0.9817
-2.1434 -3.5493 -2.0338 0.9817
-1.8183 -3.7263 -2.0338 0.9817
-1.1274 -3.9901 -2.0338 0.9817
-0.7671 -4.0747 -2.0338 0.9817
-0.0310 -4.1462 -2.0339 0.9817
1.0675 -4.0065 -2.0339 0.9817
-2.8426 -2.6999 -2.0338 0.9825
-2.5905 -2.9426 -2.0338 0.9825
-2.3178 -3.1619 -2.0338 0.9825
-1.7193 -3.5234 -2.0338 0.9825
-1.3982 -3.6627 -2.0338 0.9825
-0.7253 -3.8528 -2.0339 0.9825
-0.3788 -3.9021 -2.0339 0.9825
-0.0293 -3.9204 -2.0339 0.9825
0.3204 -3.9074 -2.0339 0.9825
-3.2734 -1.7534 -2.0339 0.9832
-2.6925 -2.5573 -2.0338 0.9832
-2.4537 -2.7872 -2.0338 0.9832
-2.1954 -2.9950 -2.0338 0.9832
-1.3244 -3.4693 -2.0339 0.9832
-0.6870 -3.6493 -2.0339 0.9832
-0.3588 -3.6961 -2.0339 0.9832
-0.0278 -3.7134 -2.0339 0.9832
0.3034 -3.7011 -2.0339 0.9832
0.6323 -3.6592 -2.0339 0.9832
0.9561 -3.5882 -2.0339 0.9832
-0.9528 -0.3086 -0.5782 0.9954
-2.9446 -1.9337 -2.0339 0.9839
-2.0827 -2.8412 -2.0339 0.9839
-1.8210 -3.0156 -2.0339 0.9839
-1.5448 -3.1660 -2.0339 0.9839
-1.2564 -3.2911 -2.0339 0.9839
-0.6517 -3.4620 -2.0339 0.9839
-0.3404 -3.5063 -2.0339 0.9839
-0.0264 -3.5227 -2.0339 0.9839
0.2879 -3.5110 -2.0339 0.9839
