ply
format ascii 1.0
element vertex 161
property float32 x
property float32 y
property float32 z
property float32 I
end_header
2.8623 -6.0968 -0.6466 0.9733
-8.6240 -14.7896 -2.0337 0.9334
-5.9046 -16.0700 -2.0337 0.9334
-4.4712 -16.5264 -2.0337 0.9334
-3.0032 -16.8552 -2.0337 0.9334
-1.5120 -17.0538 -2.0337 0.9334
1.4937 -17.0557 -2.0337 0.9334
2.9852 -16.8588 -2.0337 0.9334
1.7599 -6.5329 -0.8037 0.9731
2.3557 -6.4328 -0.8137 0.9728
11.0646 -13.0666 -2.0338 0.9334
13.1796 -10.9304 -2.0339 0.9334
-7.2301 -12.3992 -2.0337 0.9437
-6.1137 -12.9861 -2.0337 0.9437
-4.9503 -13.4727 -2.0337 0.9437
-3.7485 -13.8552 -2.0337 0.9437
-1.2677 -14.2974 -2.0337 0.9437
2.5027 -14.1338 -2.0338 0.9437
2.7761 -5.9131 -0.9256 0.9740
7.2173 -12.4078 -2.0338 0.9437
8.2786 -11.7264 -2.0338 0.9437
-5.2584 -11.1693 -2.0337 0.9512
-4.2577 -11.5877 -2.0337 0.9512
-3.2241 -11.9168 -2.0337 0.9512
-2.1655 -12.1539 -2.0337 0.9512
-1.0903 -12.2971 -2.0338 0.9512
1.0771 -12.2984 -2.0338 0.9512
7.1204 -10.0857 -2.0338 0.9512
8.7746 -8.6851 -2.0339 0.9512
-5.4504 -9.3471 -2.0337 0.9569
-4.6088 -9.7895 -2.0338 0.9569
-3.7317 -10.1563 -2.0338 0.9569
-1.8980 -10.6524 -2.0338 0.9569
-0.9556 -10.7779 -2.0338 0.9569
-0.0058 -10.8202 -2.0338 0.9569
0.9441 -10.7790 -2.0338 0.9569
2.1551 -5.8850 -1.1780 0.9748
2.6782 -5.7046 -1.1845 0.9747
6.2407 -8.8397 -2.0339 0.9569
6.9927 -8.2578 -2.0339 0.9569
7.6905 -7.6122 -2.0339 0.9569
8.3291 -6.9077 -2.0339 0.9569
-4.8466 -8.3116 -2.0338 0.9614
-3.3183 -9.0311 -2.0338 0.9614
-1.6877 -9.4723 -2.0338 0.9614
-0.8497 -9.5839 -2.0338 0.9614
0.8395 -9.5849 -2.0338 0.9614
1.6558 -6.1464 -1.3455 0.9743
3.3505 -5.7603 -1.4086 0.9731
5.5493 -7.8604 -2.0339 0.9614
6.2179 -7.3429 -2.0339 0.9614
7.4063 -6.1424 -2.0339 0.9614
-3.6860 -7.8293 -2.0338 0.9651
-2.9845 -8.1226 -2.0338 0.9651
-1.5180 -8.5194 -2.0338 0.9651
-0.7643 -8.6198 -2.0338 0.9651
1.6007 -5.9416 -1.4462 0.9750
2.0930 -5.7153 -1.4305 0.9753
6.6612 -5.5245 -2.0339 0.9651
-3.9568 -6.7856 -2.0338 0.9681
-3.3459 -7.1068 -2.0338 0.9681
-0.0042 -7.8551 -2.0338 0.9681
0.6853 -7.8252 -2.0338 0.9681
1.3696 -7.7348 -2.0338 0.9681
1.5840 -5.8799 -1.5767 0.9752
2.6443 -5.6324 -1.6111 0.9746
3.4138 -5.8688 -1.7579 0.9723
5.5830 -5.5260 -2.0339 0.9681
6.0465 -5.0146 -2.0339 0.9681
-3.6189 -6.2062 -2.0338 0.9706
-3.0601 -6.4999 -2.0338 0.9706
-2.4777 -6.7435 -2.0338 0.9706
-1.8762 -6.9349 -2.0338 0.9706
0.6268 -7.1569 -2.0338 0.9706
2.7804 -5.9224 -1.8521 0.9732
3.6123 -6.2103 -2.0339 0.9706
4.1435 -5.8692 -2.0339 0.9706
4.6428 -5.4828 -2.0339 0.9706
5.5302 -4.5864 -2.0339 0.9706
-2.8165 -5.9825 -2.0338 0.9727
-1.7269 -6.3829 -2.0338 0.9727
2.2739 -6.2092 -2.0339 0.9727
3.3248 -5.7159 -2.0339 0.9727
4.2732 -5.0464 -2.0339 0.9727
-3.0820 -5.2855 -2.0338 0.9745
-2.1102 -5.7431 -2.0338 0.9745
1.0668 -6.0249 -2.0338 0.9745
3.0764 -5.2890 -2.0339 0.9745
3.5289 -4.9985 -2.0339 0.9745
4.3487 -4.3044 -2.0339 0.9745
-2.8648 -4.9130 -2.0338 0.9761
-2.4225 -5.1456 -2.0338 0.9761
0.4962 -5.6657 -2.0338 0.9761
1.4794 -5.4916 -2.0339 0.9761
2.4170 -5.1483 -2.0339 0.9761
2.8596 -4.9162 -2.0339 0.9761
3.2802 -4.6462 -2.0339 0.9761
3.6754 -4.3404 -2.0339 0.9761
4.3779 -3.6308 -2.0339 0.9761
-2.2606 -4.8017 -2.0338 0.9775
-0.9310 -5.2250 -2.0338 0.9775
-0.4688 -5.2865 -2.0338 0.9775
0.4630 -5.2871 -2.0338 0.9775
1.3805 -5.1246 -2.0339 0.9775
1.8250 -4.9837 -2.0339 0.9775
3.4298 -4.0503 -2.0339 0.9775
3.7721 -3.7336 -2.0339 0.9775
4.0853 -3.3881 -2.0339 0.9775
-1.2978 -4.7969 -2.0338 0.9788
-0.4389 -4.9500 -2.0338 0.9788
1.2927 -4.7983 -2.0339 0.9788
2.4986 -4.2956 -2.0339 0.9788
3.5319 -3.4959 -2.0339 0.9788
-2.3508 -4.0314 -2.0338 0.9798
-1.9878 -4.2222 -2.0338 0.9798
-0.8186 -4.5944 -2.0338 0.9798
-0.4121 -4.6485 -2.0338 0.9798
0.4072 -4.6490 -2.0339 0.9798
1.2139 -4.5062 -2.0339 0.9798
1.9833 -4.2244 -2.0339 0.9798
2.6916 -3.8125 -2.0339 0.9798
3.5922 -2.9792 -2.0339 0.9798
-2.2133 -3.7957 -2.0338 0.9808
-1.8716 -3.9753 -2.0338 0.9808
-1.5154 -4.1243 -2.0338 0.9808
-1.1475 -4.2414 -2.0338 0.9808
0.3834 -4.3771 -2.0339 0.9808
2.8395 -3.3532 -2.0339 0.9808
-2.0886 -3.5818 -2.0338 0.9817
-0.3662 -4.1301 -2.0339 0.9817
0.3617 -4.1305 -2.0339 0.9817
0.7230 -4.0828 -2.0339 0.9817
1.7621 -3.7533 -2.0339 0.9817
2.9469 -2.9169 -2.0339 0.9817
3.1916 -2.6469 -2.0339 0.9817
-1.0239 -3.7844 -2.0338 0.9825
-0.6877 -3.8597 -2.0339 0.9825
-0.0021 -3.9205 -2.0339 0.9825
0.6836 -3.8604 -2.0339 0.9825
1.0198 -3.7855 -2.0339 0.9825
1.3482 -3.6814 -2.0339 0.9825
1.9712 -3.3889 -2.0339 0.9825
2.7864 -2.7580 -2.0339 0.9825
-1.5817 -3.3597 -2.0338 0.9832
-0.9698 -3.5846 -2.0339 0.9832
-0.3280 -3.6989 -2.0339 0.9832
-0.0020 -3.7134 -2.0339 0.9832
0.3240 -3.6993 -2.0339 0.9832
0.9660 -3.5856 -2.0339 0.9832
1.8671 -3.2100 -2.0339 0.9832
2.8584 -2.3706 -2.0339 0.9832
-1.7745 -3.0432 -2.0339 0.9839
-1.2150 -3.3066 -2.0339 0.9839
-0.9200 -3.4005 -2.0339 0.9839
-0.3111 -3.5090 -2.0339 0.9839
-0.0019 -3.5228 -2.0339 0.9839
0.6143 -3.4688 -2.0339 0.9839
1.7713 -3.0451 -2.0339 0.9839
2.2766 -2.6884 -2.0339 0.9839
2.5038 -2.4782 -2.0339 0.9839
2.7116 -2.2489 -2.0339 0.9839
