ply
format ascii 1.0
element vertex 241
property float32 x
property float32 y
property float32 z
property float32 I
end_header
-11.8685 12.5968 2.6514 0.9324
-11.4737 12.1778 2.1788 0.9347
-11.9623 12.6963 1.0817 0.9325
-12.7649 13.5482 0.7340 0.9282
-16.7695 4.9466 -1.2820 0.9323
-1.7046 7.3690 -0.7261 0.9701
-16.7398 4.9378 -1.6756 0.9323
-0.8765 17.1014 -2.0341 0.9333
-1.6977 7.3392 -0.8948 0.9701
-9.3771 14.3272 -2.0340 0.9334
-10.6006 13.4469 -2.0340 0.9334
-16.4221 4.8441 -2.0338 0.9334
-17.0845 -1.1184 -2.0337 0.9334
-1.6856 7.2871 -1.0598 0.9702
-4.4526 13.6475 -2.0340 0.9437
-5.6354 13.2029 -2.0340 0.9437
-7.8613 12.0112 -2.0340 0.9437
-8.8870 11.2733 -2.0340 0.9437
-9.8438 10.4480 -2.0339 0.9437
-10.7245 9.5418 -2.0339 0.9437
-11.5219 8.5616 -2.0339 0.9437
-12.2301 7.5152 -2.0339 0.9437
-13.7677 4.0611 -2.0338 0.9437
-14.2660 1.5862 -2.0338 0.9437
-14.3501 0.3255 -2.0338 0.9437
-14.3230 -0.9377 -2.0338 0.9437
-13.9371 -3.4325 -2.0337 0.9437
-13.5812 -4.6448 -2.0337 0.9437
-4.8469 11.3555 -2.0340 0.9512
-5.8267 10.8852 -2.0340 0.9512
-8.4665 8.9861 -2.0339 0.9512
-9.2239 8.2067 -2.0339 0.9512
-9.9098 7.3637 -2.0339 0.9512
-10.5189 6.4636 -2.0339 0.9512
-11.4884 4.5207 -2.0339 0.9512
-11.8414 3.4929 -2.0338 0.9512
-12.1026 2.4380 -2.0338 0.9512
-12.2700 1.3643 -2.0338 0.9512
-12.3424 0.2800 -2.0338 0.9512
-12.2004 -1.8867 -2.0338 0.9512
-11.6811 -3.9949 -2.0338 0.9512
-1.0220 7.2913 -1.3839 0.9705
-2.3361 7.1604 -1.4157 0.9698
-5.1068 9.5404 -2.0340 0.9569
-6.6992 8.4980 -2.0339 0.9569
-8.6855 6.4540 -2.0339 0.9569
-9.2193 5.6651 -2.0339 0.9569
-10.0691 3.9622 -2.0339 0.9569
-10.6074 2.1368 -2.0338 0.9569
-10.8176 0.2454 -2.0338 0.9569
-10.7972 -0.7068 -2.0338 0.9569
-10.5063 -2.5875 -2.0338 0.9569
-0.3896 7.6015 -1.6089 0.9694
-5.2694 8.0511 -2.0339 0.9614
-5.9570 7.5565 -2.0339 0.9614
-6.5984 7.0033 -2.0339 0.9614
-7.1886 6.3959 -2.0339 0.9614
-7.7232 5.7389 -2.0339 0.9614
-8.1979 5.0374 -2.0339 0.9614
-8.9536 3.5232 -2.0339 0.9614
-9.4322 1.9001 -2.0338 0.9614
-9.5627 1.0633 -2.0338 0.9614
-9.6010 -0.6285 -2.0338 0.9614
-9.5085 -1.4704 -2.0338 0.9614
-9.3423 -2.3009 -2.0338 0.9614
-1.0279 7.3328 -1.7402 0.9700
-1.6793 7.2598 -1.7513 0.9698
-2.4102 7.3873 -1.8263 0.9686
-5.3577 6.7963 -2.0339 0.9651
-5.9346 6.2988 -2.0339 0.9651
-6.9463 5.1616 -2.0339 0.9651
-7.3732 4.5307 -2.0339 0.9651
-8.0529 3.1688 -2.0339 0.9651
-8.3003 2.4483 -2.0339 0.9651
-8.6515 0.1962 -2.0338 0.9651
-8.5520 -1.3225 -2.0338 0.9651
-1.0905 7.7796 -2.0340 0.9681
-2.4366 7.4682 -2.0340 0.9681
-3.7073 6.9258 -2.0339 0.9681
-4.3019 6.5729 -2.0339 0.9681
-4.8632 6.1691 -2.0339 0.9681
-5.3869 5.7175 -2.0339 0.9681
-7.3097 2.8764 -2.0339 0.9681
-7.5343 2.2224 -2.0339 0.9681
-7.8531 0.1781 -2.0338 0.9681
-7.8383 -0.5131 -2.0338 0.9681
-2.2285 6.8304 -2.0340 0.9706
-2.8205 6.6079 -2.0340 0.9706
-3.3907 6.3343 -2.0339 0.9706
-3.9346 6.0116 -2.0339 0.9706
-6.1212 3.7614 -2.0339 0.9706
-6.6855 2.6307 -2.0339 0.9706
-7.0429 1.4187 -2.0339 0.9706
-7.1404 0.7939 -2.0338 0.9706
-7.1689 -0.4693 -2.0338 0.9706
-7.0999 -1.0979 -2.0338 0.9706
-6.9758 -1.7181 -2.0338 0.9706
-6.7977 -2.3248 -2.0338 0.9706
-2.0511 6.2866 -2.0340 0.9727
-3.6213 5.5330 -2.0339 0.9727
-4.0938 5.1931 -2.0339 0.9727
-4.9403 4.3955 -2.0339 0.9727
-5.3077 3.9440 -2.0339 0.9727
-5.6339 3.4620 -2.0339 0.9727
-6.1532 2.4213 -2.0339 0.9727
-6.5720 0.7307 -2.0339 0.9727
-6.6107 0.1499 -2.0338 0.9727
-6.5347 -1.0105 -2.0338 0.9727
-6.4205 -1.5813 -2.0338 0.9727
-6.2566 -2.1398 -2.0338 0.9727
-1.3790 5.9615 -2.0340 0.9745
-2.8876 5.3946 -2.0339 0.9745
-3.7881 4.8052 -2.0339 0.9745
-4.5713 4.0672 -2.0339 0.9745
-5.2132 3.2034 -2.0339 0.9745
-5.8686 1.7311 -2.0339 0.9745
-5.9981 1.2083 -2.0339 0.9745
-6.1170 0.1388 -2.0338 0.9745
-6.1055 -0.3997 -2.0338 0.9745
-6.0467 -0.9351 -2.0338 0.9745
-5.9410 -1.4632 -2.0338 0.9745
-5.7893 -1.9800 -2.0338 0.9745
-0.2911 5.6802 -2.0340 0.9761
-0.7895 5.6326 -2.0340 0.9761
-1.2818 5.5413 -2.0340 0.9761
-1.7641 5.4071 -2.0339 0.9761
-2.2328 5.2310 -2.0339 0.9761
-2.6842 5.0144 -2.0339 0.9761
-3.5211 4.4666 -2.0339 0.9761
-3.9003 4.1396 -2.0339 0.9761
-4.5651 3.3922 -2.0339 0.9761
-5.0888 2.5399 -2.0339 0.9761
-5.2925 2.0826 -2.0339 0.9761
-5.4550 1.6091 -2.0339 0.9761
-5.6526 0.6285 -2.0339 0.9761
-5.6859 0.1290 -2.0339 0.9761
-5.6752 -0.3715 -2.0338 0.9761
-0.2717 5.3006 -2.0340 0.9775
-0.7368 5.2562 -2.0340 0.9775
-1.1962 5.1710 -2.0339 0.9775
-1.6462 5.0458 -2.0339 0.9775
-2.0836 4.8814 -2.0339 0.9775
-2.5048 4.6793 -2.0339 0.9775
-2.9065 4.4409 -2.0339 0.9775
-3.9652 3.5279 -2.0339 0.9775
-4.2601 3.1655 -2.0339 0.9775
-4.5219 2.7786 -2.0339 0.9775
-5.2748 0.5865 -2.0339 0.9775
-5.3059 0.1204 -2.0339 0.9775
-5.2960 -0.3467 -2.0339 0.9775
-5.1532 -1.2692 -2.0338 0.9775
-0.2544 4.9631 -2.0340 0.9787
-0.6898 4.9215 -2.0339 0.9788
-1.1200 4.8418 -2.0339 0.9788
-1.5414 4.7245 -2.0339 0.9788
-2.3453 4.3813 -2.0339 0.9788
-3.0766 3.9027 -2.0339 0.9788
-4.2340 2.6017 -2.0339 0.9788
-4.6243 1.8197 -2.0339 0.9788
-4.7664 1.4060 -2.0339 0.9788
-2.1114 0.2347 -0.8695 0.9909
-2.1226 0.0481 -0.8689 0.9909
-2.1208 -0.1389 -0.8698 0.9909
-2.1145 -0.3270 -0.8757 0.9908
-2.1616 -0.5324 -0.9111 0.9904
-4.7020 -1.6081 -2.0338 0.9788
-0.2389 4.6608 -2.0340 0.9798
-0.6479 4.6218 -2.0339 0.9798
-1.8321 4.2923 -2.0339 0.9798
-2.2025 4.1145 -2.0339 0.9798
-2.5557 3.9049 -2.0339 0.9798
-2.8892 3.6650 -2.0339 0.9798
-3.4866 3.1021 -2.0339 0.9798
-3.7459 2.7835 -2.0339 0.9798
-1.9041 -0.4690 -0.8546 0.9915
-4.4156 -1.5102 -2.0338 0.9798
-0.2249 4.3883 -2.0339 0.9808
-1.3629 4.1773 -2.0339 0.9808
-1.7250 4.0413 -2.0339 0.9808
-2.0737 3.8739 -2.0339 0.9808
-2.4063 3.6765 -2.0339 0.9808
-3.0132 3.1981 -2.0339 0.9808
-3.7437 2.3004 -2.0339 0.9808
-3.9314 1.9622 -2.0339 0.9808
-4.0887 1.6089 -2.0339 0.9808
-1.6002 0.3223 -0.7556 0.9928
-1.5982 -0.1047 -0.7414 0.9930
-1.5775 -0.3886 -0.7520 0.9929
-0.5756 4.1063 -2.0339 0.9817
-2.2707 3.4694 -2.0339 0.9817
-2.5670 3.2562 -2.0339 0.9817
-2.8434 3.0179 -2.0339 0.9817
-3.0978 2.7562 -2.0339 0.9817
-3.3281 2.4730 -2.0339 0.9817
-3.7099 1.8517 -2.0339 0.9817
-1.3336 0.2686 -0.6673 0.9940
-1.3427 0.0304 -0.6588 0.9940
-1.3516 -0.0885 -0.6644 0.9940
-1.3471 -0.2083 -0.6686 0.9939
-1.3186 -0.3248 -0.6661 0.9940
-1.2161 3.7272 -2.0339 0.9825
-1.8502 3.4565 -2.0339 0.9825
-2.1470 3.2804 -2.0339 0.9825
-2.6885 2.8535 -2.0339 0.9825
-2.9290 2.6060 -2.0339 0.9825
-1.1509 0.3395 -0.6225 0.9946
-1.1799 0.2377 -0.6244 0.9946
-1.1957 0.0271 -0.6205 0.9946
-1.1999 -0.0786 -0.6238 0.9946
-1.1931 -0.1845 -0.6263 0.9946
-1.1674 -0.2875 -0.6237 0.9946
-1.1369 -0.3888 -0.6233 0.9946
-0.1901 3.7087 -2.0339 0.9832
-0.5155 3.6776 -2.0339 0.9832
-1.4578 3.4154 -2.0339 0.9832
-2.0336 3.1072 -2.0339 0.9832
-2.5465 2.7028 -2.0339 0.9832
-2.7743 2.4684 -2.0339 0.9832
-2.9807 2.2149 -2.0339 0.9832
-3.1639 1.9442 -2.0339 0.9832
-1.0150 0.3994 -0.5974 0.9950
-1.0596 0.2134 -0.5920 0.9951
-1.0780 0.1198 -0.5941 0.9951
-1.0279 -0.3516 -0.5950 0.9951
-0.4890 3.4887 -2.0339 0.9839
-0.7939 3.4322 -2.0339 0.9839
-1.0926 3.3491 -2.0339 0.9839
-1.6625 3.1059 -2.0339 0.9839
-1.9292 2.9476 -2.0339 0.9839
-2.1809 2.7665 -2.0339 0.9839
-2.6319 2.3417 -2.0339 0.9839
-3.0014 1.8443 -2.0339 0.9839
-0.9129 0.4556 -0.5890 0.9953
-0.9568 0.2822 -0.5760 0.9954
-0.9746 0.1963 -0.5740 0.9954
-0.9871 0.1097 -0.5734 0.9954
-0.9898 0.0224 -0.5716 0.9954
-0.9897 -0.0648 -0.5726 0.9954
-0.9823 -0.1519 -0.5739 0.9954
-0.9645 -0.2376 -0.5735 0.9954
-0.9498 -0.3249 -0.5796 0.9954
