ply
format ascii 1.0
element vertex 172
property float32 x
property float32 y
property float32 z
property float32 I
end_header
-11.9119 -7.9304 -1.0493 0.9442
-11.6887 -7.7817 -1.3481 0.9451
-9.9193 -13.9541 -2.0337 0.9334
-8.6048 -14.8008 -2.0337 0.9334
-5.7721 -16.1181 -2.0337 0.9334
-2.7471 -16.8988 -2.0337 0.9334
-13.6549 -4.4235 -2.0337 0.9437
-13.1943 -5.6508 -2.0337 0.9437
-12.6236 -6.8310 -2.0337 0.9437
-11.9478 -7.9542 -2.0337 0.9437
-10.3034 -9.9928 -2.0337 0.9437
-9.3487 -10.8912 -2.0337 0.9437
-8.3160 -11.6987 -2.0337 0.9437
-6.0518 -13.0150 -2.0337 0.9437
-3.5861 -13.8982 -2.0337 0.9437
2.9121 -14.0552 -2.0338 0.9437
-11.7445 -3.8046 -2.0338 0.9512
-11.3484 -4.8602 -2.0337 0.9512
-9.6091 -7.7504 -2.0337 0.9512
-8.8619 -8.5947 -2.0337 0.9512
-8.0408 -9.3675 -2.0337 0.9512
-7.1526 -10.0620 -2.0337 0.9512
-5.2051 -11.1942 -2.0337 0.9512
-3.0844 -11.9537 -2.0337 0.9512
-0.8609 -12.3153 -2.0338 0.9512
0.2663 -12.3425 -2.0338 0.9512
-9.9464 -4.2598 -2.0338 0.9569
-9.0067 -5.9962 -2.0338 0.9569
-8.4220 -6.7929 -2.0338 0.9569
-7.0474 -8.2102 -2.0337 0.9569
-6.2690 -8.8190 -2.0337 0.9569
-5.4382 -9.3541 -2.0337 0.9569
-3.6479 -10.1866 -2.0338 0.9569
-0.7545 -10.7939 -2.0338 0.9569
2.1952 -10.5954 -2.0338 0.9569
-8.8445 -3.7879 -2.0338 0.9614
-8.4620 -4.5790 -2.0338 0.9614
-7.4890 -6.0404 -2.0338 0.9614
-6.2667 -7.3007 -2.0338 0.9614
-5.5745 -7.8420 -2.0338 0.9614
-4.0567 -8.7244 -2.0338 0.9614
-1.5438 -9.4968 -2.0338 0.9614
-0.6709 -9.5981 -2.0338 0.9614
1.3212 -6.3769 -1.3766 0.9737
-8.2324 -2.6669 -2.0338 0.9651
-7.6107 -4.1184 -2.0338 0.9651
-7.2032 -4.7956 -2.0338 0.9651
-6.2119 -6.0246 -2.0338 0.9651
-5.0137 -7.0531 -2.0338 0.9651
-2.9175 -8.1469 -2.0338 0.9651
-2.1621 -8.3792 -2.0338 0.9651
-1.3885 -8.5415 -2.0338 0.9651
-0.6035 -8.6326 -2.0338 0.9651
0.9752 -8.5986 -2.0338 0.9651
1.2912 -6.2318 -1.4957 0.9742
-7.2207 -3.0924 -2.0338 0.9681
-6.9084 -3.7383 -2.0338 0.9681
-5.6386 -5.4687 -2.0338 0.9681
-3.9480 -6.7907 -2.0338 0.9681
-3.3119 -7.1226 -2.0338 0.9681
-2.6483 -7.3951 -2.0338 0.9681
-1.2604 -7.7532 -2.0338 0.9681
0.1694 -7.8532 -2.0338 0.9681
1.2793 -6.1742 -1.6326 0.9743
-6.6041 -2.8284 -2.0338 0.9706
-5.5920 -4.5103 -2.0338 0.9706
-5.1571 -5.0017 -2.0338 0.9706
-3.0291 -6.5144 -2.0338 0.9706
-1.7949 -6.9564 -2.0338 0.9706
0.1550 -7.1826 -2.0338 0.9706
-5.8155 -3.1469 -2.0338 0.9727
-4.7466 -4.6035 -2.0338 0.9727
-4.3068 -5.0174 -2.0338 0.9727
-3.8311 -5.3894 -2.0338 0.9727
-3.3234 -5.7165 -2.0338 0.9727
-0.4611 -6.5963 -2.0338 0.9727
0.7452 -6.5703 -2.0338 0.9727
1.3415 -6.4749 -2.0338 0.9727
-5.6244 -2.4088 -2.0338 0.9745
-5.3811 -2.9119 -2.0338 0.9745
-3.9852 -4.6427 -2.0338 0.9745
-3.5450 -4.9869 -2.0338 0.9745
-3.0752 -5.2895 -2.0338 0.9745
-2.5798 -5.5480 -2.0338 0.9745
-0.9817 -6.0392 -2.0338 0.9745
-0.4267 -6.1036 -2.0338 0.9745
0.1320 -6.1171 -2.0338 0.9745
1.2413 -5.9913 -2.0338 0.9745
-5.4105 -1.7527 -2.0338 0.9761
-5.0019 -2.7067 -2.0338 0.9761
-4.7342 -3.1518 -2.0338 0.9761
-4.4269 -3.5706 -2.0338 0.9761
-4.0826 -3.9596 -2.0338 0.9761
-3.2952 -4.6355 -2.0338 0.9761
0.1227 -5.6861 -2.0338 0.9761
1.1539 -5.5691 -2.0338 0.9761
-5.0489 -1.6356 -2.0338 0.9775
-4.8787 -2.0894 -2.0338 0.9775
-4.4178 -2.9411 -2.0338 0.9775
-4.1310 -3.3319 -2.0338 0.9775
-3.0750 -4.3257 -2.0338 0.9775
-2.6674 -4.5882 -2.0338 0.9775
-2.2377 -4.8124 -2.0338 0.9775
-1.7893 -4.9965 -2.0338 0.9775
-1.3260 -5.1390 -2.0338 0.9775
0.1145 -5.3061 -2.0338 0.9775
0.5981 -5.2735 -2.0338 0.9775
-4.7275 -1.5315 -2.0338 0.9788
-4.5680 -1.9564 -2.0338 0.9788
-4.3705 -2.3650 -2.0338 0.9788
-4.1365 -2.7539 -2.0338 0.9788
-3.8680 -3.1198 -2.0338 0.9788
-3.5672 -3.4597 -2.0338 0.9788
-2.8791 -4.0503 -2.0338 0.9788
-2.4977 -4.2961 -2.0338 0.9788
-2.0952 -4.5061 -2.0338 0.9788
-1.2416 -4.8118 -2.0338 0.9788
-0.3466 -4.9573 -2.0338 0.9788
0.1072 -4.9682 -2.0338 0.9788
0.5600 -4.9378 -2.0338 0.9788
-4.1043 -2.2210 -2.0338 0.9798
-3.6325 -2.9298 -2.0338 0.9798
-3.3500 -3.2490 -2.0338 0.9798
-3.0396 -3.5411 -2.0338 0.9798
-2.7038 -3.8037 -2.0338 0.9798
-2.3455 -4.0345 -2.0338 0.9798
-1.5734 -4.3935 -2.0338 0.9798
-0.3255 -4.6554 -2.0338 0.9798
0.5259 -4.6371 -2.0339 0.9798
0.9468 -4.5697 -2.0339 0.9798
-1.6208 -0.5251 -0.7886 0.9925
-3.8643 -2.0911 -2.0338 0.9808
-3.4200 -2.7585 -2.0338 0.9808
-3.1541 -3.0590 -2.0338 0.9808
-2.8619 -3.3340 -2.0338 0.9808
-2.2084 -3.7986 -2.0338 0.9808
-1.8526 -3.9842 -2.0338 0.9808
-0.3064 -4.3832 -2.0338 0.9808
0.0948 -4.3929 -2.0339 0.9808
0.8914 -4.3025 -2.0339 0.9808
-3.8114 -1.6324 -2.0338 0.9817
-3.4513 -2.2978 -2.0338 0.9817
-2.0840 -3.5845 -2.0338 0.9817
-1.3979 -3.9036 -2.0338 0.9817
-1.0359 -4.0148 -2.0338 0.9817
0.0895 -4.1453 -2.0339 0.9817
0.8412 -4.0601 -2.0339 0.9817
-1.1117 -0.4761 -0.6274 0.9946
-3.4480 -1.8658 -2.0338 0.9825
-2.8142 -2.7294 -2.0338 0.9825
-2.5535 -2.9748 -2.0338 0.9825
-0.6291 -3.8697 -2.0339 0.9825
-0.2734 -3.9109 -2.0339 0.9825
0.0845 -3.9196 -2.0339 0.9825
0.4418 -3.8955 -2.0339 0.9825
-1.0315 -0.3342 -0.5939 0.9951
-2.8904 -2.3313 -2.0338 0.9832
-2.4186 -2.8177 -2.0338 0.9832
-2.1515 -3.0267 -2.0338 0.9832
-1.8664 -3.2103 -2.0338 0.9832
-1.5657 -3.3672 -2.0338 0.9832
-0.2589 -3.7044 -2.0339 0.9832
-0.9528 -0.3087 -0.5782 0.9954
-0.9013 -0.4877 -0.5916 0.9953
-2.7420 -2.2116 -2.0339 0.9839
-2.5287 -2.4525 -2.0339 0.9839
-2.2944 -2.6730 -2.0339 0.9839
-1.7705 -3.0455 -2.0339 0.9839
-1.1877 -3.3165 -2.0339 0.9839
-0.8802 -3.4110 -2.0339 0.9839
-0.5653 -3.4771 -2.0339 0.9839
0.3970 -3.5003 -2.0339 0.9839
