ply
format ascii 1.0
element vertex 191
property float32 x
property float32 y
property float32 z
property float32 I
end_header
16.5630 -4.1587 -0.8661 0.9339
16.2502 -4.0801 -1.2285 0.9350
2.6236 -6.0160 -0.7796 0.9739
8.2475 -15.0043 -2.0338 0.9334
13.0652 -11.0668 -2.0339 0.9334
14.0205 -9.8288 -2.0339 0.9334
14.8588 -8.5088 -2.0339 0.9334
16.1579 -5.6675 -2.0340 0.9334
17.1169 0.4807 -2.0341 0.9333
17.0018 2.0403 -2.0341 0.9333
2.0530 -6.1978 -0.9251 0.9740
2.6034 -5.9697 -0.9228 0.9740
8.0332 -11.8959 -2.0338 0.9437
10.9533 -9.2779 -2.0339 0.9437
11.7541 -8.2401 -2.0339 0.9437
12.4570 -7.1334 -2.0339 0.9437
13.0559 -5.9673 -2.0339 0.9437
13.5460 -4.7514 -2.0340 0.9437
14.1841 -2.2110 -2.0340 0.9437
14.3499 0.4030 -2.0340 0.9437
14.2534 1.7105 -2.0340 0.9437
1.9870 -5.9985 -1.0410 0.9747
2.5911 -5.9416 -1.0678 0.9741
6.9092 -10.2314 -2.0338 0.9512
8.6534 -8.8059 -2.0339 0.9512
11.2291 -5.1323 -2.0339 0.9512
11.6506 -4.0866 -2.0340 0.9512
12.3221 -0.7808 -2.0340 0.9512
12.3420 0.3466 -2.0340 0.9512
12.2590 1.4711 -2.0340 0.9512
1.4764 -6.3478 -1.2250 0.9738
1.9732 -5.9568 -1.1795 0.9748
2.5014 -5.7359 -1.1762 0.9749
7.5843 -7.7180 -2.0339 0.9569
8.2568 -6.9939 -2.0339 0.9569
8.8605 -6.2115 -2.0339 0.9569
10.2112 -3.5817 -2.0339 0.9569
10.4955 -2.6352 -2.0340 0.9569
10.6921 -1.6667 -2.0340 0.9569
10.7996 -0.6843 -2.0340 0.9569
10.8171 0.3038 -2.0340 0.9569
10.7443 1.2894 -2.0340 0.9569
2.5519 -5.8516 -1.3494 0.9742
3.1552 -5.7401 -1.3846 0.9736
6.7440 -6.8629 -2.0339 0.9614
7.3421 -6.2191 -2.0339 0.9614
7.8789 -5.5233 -2.0339 0.9614
9.3326 -2.3432 -2.0340 0.9614
9.6186 0.2701 -2.0340 0.9614
1.9166 -5.7859 -1.4325 0.9753
2.5430 -5.8313 -1.4952 0.9742
3.0460 -5.5416 -1.4862 0.9744
4.8430 -7.1718 -2.0339 0.9651
5.4771 -6.7001 -2.0339 0.9651
6.6034 -5.5935 -2.0339 0.9651
7.0862 -4.9677 -2.0339 0.9651
7.8710 -3.5975 -2.0339 0.9651
8.5511 -1.3329 -2.0340 0.9651
8.5928 1.0312 -2.0340 0.9651
1.4039 -6.0359 -1.6045 0.9747
2.5345 -5.8116 -1.6416 0.9741
3.1861 -5.7965 -1.7126 0.9730
4.3961 -6.5100 -2.0339 0.9681
4.9717 -6.0818 -2.0339 0.9681
6.4323 -4.5093 -2.0339 0.9681
6.8169 -3.9037 -2.0339 0.9681
7.1446 -3.2655 -2.0339 0.9681
7.4128 -2.6001 -2.0339 0.9681
7.6191 -1.9130 -2.0339 0.9681
7.8526 0.2205 -2.0340 0.9681
7.7997 0.9360 -2.0340 0.9681
1.4393 -6.1884 -1.7987 0.9739
3.2029 -5.8268 -1.8823 0.9727
4.0207 -5.9540 -2.0339 0.9706
5.0356 -5.1244 -2.0339 0.9706
6.5345 -2.9866 -2.0339 0.9706
6.7797 -2.3781 -2.0339 0.9706
6.9684 -1.7496 -2.0339 0.9706
7.0990 -1.1066 -2.0339 0.9706
7.1704 -0.4544 -2.0340 0.9706
7.1820 0.2017 -2.0340 0.9706
7.1336 0.8561 -2.0340 0.9706
1.4980 -6.4405 -2.0338 0.9727
2.0793 -6.2770 -2.0338 0.9727
2.6433 -6.0612 -2.0339 0.9727
3.7006 -5.4801 -2.0339 0.9727
6.0143 -2.7489 -2.0339 0.9727
6.2400 -2.1888 -2.0339 0.9727
6.4137 -1.6104 -2.0339 0.9727
6.5339 -1.0185 -2.0339 0.9727
6.5996 -0.4182 -2.0340 0.9727
6.6102 0.1856 -2.0340 0.9727
6.5657 0.7879 -2.0340 0.9727
1.3861 -5.9595 -2.0338 0.9745
1.9240 -5.8082 -2.0339 0.9745
2.4459 -5.6085 -2.0339 0.9745
2.9473 -5.3620 -2.0339 0.9745
3.4242 -5.0708 -2.0339 0.9745
3.8726 -4.7372 -2.0339 0.9745
4.6689 -3.9548 -2.0339 0.9745
5.5651 -2.5436 -2.0339 0.9745
5.7739 -2.0253 -2.0339 0.9745
6.1067 -0.3870 -2.0339 0.9745
1.2884 -5.5396 -2.0338 0.9761
1.7884 -5.3989 -2.0339 0.9761
2.2735 -5.2133 -2.0339 0.9761
3.5996 -4.4034 -2.0339 0.9761
4.6571 -3.2649 -2.0339 0.9761
4.9356 -2.8264 -2.0339 0.9761
5.3670 -1.8825 -2.0339 0.9761
5.6198 -0.8760 -2.0339 0.9761
5.6854 0.1597 -2.0340 0.9761
5.6472 0.6777 -2.0340 0.9761
1.2023 -5.1693 -2.0339 0.9775
1.6689 -5.0381 -2.0339 0.9775
2.5565 -4.6510 -2.0339 0.9775
2.9702 -4.3984 -2.0339 0.9775
3.3591 -4.1091 -2.0339 0.9775
4.0498 -3.4304 -2.0339 0.9775
4.6058 -2.6375 -2.0339 0.9775
4.8272 -2.2063 -2.0339 0.9775
5.2970 -0.3356 -2.0339 0.9775
1.1258 -4.8402 -2.0339 0.9788
1.5626 -4.7174 -2.0339 0.9788
1.9865 -4.5552 -2.0339 0.9788
2.3938 -4.3549 -2.0339 0.9788
2.7811 -4.1184 -2.0339 0.9788
3.7920 -3.2120 -2.0339 0.9788
4.0693 -2.8527 -2.0339 0.9788
4.3125 -2.4696 -2.0339 0.9788
4.9104 -0.7654 -2.0339 0.9787
4.9597 -0.3143 -2.0339 0.9788
1.8655 -4.2777 -2.0339 0.9798
2.6117 -3.8676 -2.0339 0.9798
2.9537 -3.6132 -2.0339 0.9798
3.2710 -3.3287 -2.0339 0.9798
3.5611 -3.0164 -2.0339 0.9798
4.0499 -2.3192 -2.0339 0.9798
4.2446 -1.9400 -2.0339 0.9798
4.6113 -0.7188 -2.0339 0.9798
4.6651 0.1310 -2.0339 0.9798
4.6337 0.5561 -2.0339 0.9798
1.3816 -4.1710 -2.0339 0.9808
2.7810 -3.4019 -2.0339 0.9808
3.0798 -3.1340 -2.0339 0.9808
3.3529 -2.8400 -2.0339 0.9808
3.5980 -2.5223 -2.0339 0.9808
3.8131 -2.1836 -2.0339 0.9808
3.9964 -1.8266 -2.0339 0.9808
4.1464 -1.4544 -2.0339 0.9808
4.2618 -1.0701 -2.0339 0.9808
4.3853 -0.2779 -2.0339 0.9808
4.3923 0.1233 -2.0339 0.9808
4.3628 0.5235 -2.0339 0.9808
0.9393 -4.0385 -2.0339 0.9817
1.3038 -3.9360 -2.0339 0.9817
1.6575 -3.8007 -2.0339 0.9817
2.3205 -3.4362 -2.0339 0.9817
2.9062 -2.9574 -2.0339 0.9817
3.3952 -2.3802 -2.0339 0.9817
3.5982 -2.0605 -2.0339 0.9817
3.7712 -1.7236 -2.0339 0.9817
1.2328 -3.7216 -2.0339 0.9825
1.5672 -3.5937 -2.0339 0.9825
1.8885 -3.4357 -2.0339 0.9825
2.1941 -3.2491 -2.0339 0.9825
2.4813 -3.0354 -2.0339 0.9825
2.9916 -2.5340 -2.0339 0.9825
3.4022 -1.9482 -2.0339 0.9825
2.0989 -0.3272 -1.1020 0.9905
2.0784 -0.1317 -1.0804 0.9907
2.0859 0.2503 -1.0899 0.9906
1.1677 -3.5251 -2.0339 0.9832
1.4844 -3.4039 -2.0339 0.9832
1.7887 -3.2543 -2.0339 0.9832
2.0782 -3.0775 -2.0339 0.9832
2.3503 -2.8751 -2.0339 0.9832
2.6028 -2.6487 -2.0339 0.9832
1.9760 -0.6931 -1.1469 0.9905
1.8573 -0.4663 -1.0488 0.9913
1.8495 -0.2883 -1.0252 0.9915
1.8524 -0.1174 -1.0166 0.9916
1.8460 0.2215 -1.0183 0.9916
1.4082 -3.2291 -2.0339 0.9839
1.6969 -3.0872 -2.0339 0.9839
1.9715 -2.9195 -2.0339 0.9839
2.2296 -2.7275 -2.0339 0.9839
2.6881 -2.2769 -2.0339 0.9839
1.7834 -0.8151 -1.1321 0.9910
1.7139 -0.4304 -1.0203 0.9919
1.7245 0.0484 -0.9960 0.9921
