ply
format ascii 1.0
element vertex 191
property float32 x
property float32 y
property float32 z
property float32 I
end_header
2.0991 17.6602 2.7245 0.9306
2.1322 17.9392 2.3525 0.9297
2.2325 18.7830 1.6012 0.9269
2.1001 17.6691 1.1034 0.9312
3.8820 18.4855 0.7448 0.9272
2.1493 18.0823 0.7180 0.9297
3.7985 18.0876 0.3122 0.9287
2.2011 18.5187 0.3150 0.9281
2.2283 18.7471 -0.1063 0.9273
2.1894 18.4202 -0.5223 0.9285
13.7253 8.7118 -1.5607 0.9368
16.7449 3.5829 -2.0341 0.9333
16.3618 5.0521 -2.0341 0.9333
15.8502 6.4815 -2.0341 0.9333
13.5882 10.4213 -2.0341 0.9333
11.5361 12.6555 -2.0341 0.9333
6.4214 15.8748 -2.0341 0.9333
0.5070 17.1165 -2.0341 0.9333
-1.0111 17.0940 -2.0341 0.9333
14.0380 3.0037 -2.0341 0.9437
13.7168 4.2354 -2.0341 0.9437
12.7543 6.5894 -2.0341 0.9437
12.1206 7.6932 -2.0341 0.9437
9.6712 10.6097 -2.0341 0.9437
6.5410 12.7793 -2.0341 0.9437
0.4250 14.3495 -2.0341 0.9437
11.7975 3.6427 -2.0340 0.9512
10.9696 5.6673 -2.0341 0.9512
9.7975 7.5141 -2.0341 0.9512
8.3179 9.1251 -2.0341 0.9512
7.4770 9.8260 -2.0341 0.9512
6.5772 10.4496 -2.0341 0.9512
4.6301 11.4462 -2.0341 0.9512
-0.4618 7.8074 -1.2884 0.9688
10.3398 3.1926 -2.0340 0.9569
10.0165 4.0960 -2.0340 0.9569
8.5870 6.5857 -2.0340 0.9569
7.2902 7.9976 -2.0341 0.9569
6.5531 8.6119 -2.0341 0.9569
5.7645 9.1585 -2.0341 0.9569
3.1535 10.3520 -2.0340 0.9569
2.2241 10.5906 -2.0340 0.9569
0.3205 10.8168 -2.0340 0.9569
9.4095 2.0134 -2.0340 0.9614
9.1943 2.8389 -2.0340 0.9614
8.9067 3.6422 -2.0340 0.9614
8.5491 4.4168 -2.0340 0.9614
7.0869 6.5094 -2.0340 0.9614
5.1258 8.1438 -2.0340 0.9614
4.3843 8.5658 -2.0340 0.9614
3.6084 8.9205 -2.0340 0.9614
2.8041 9.2050 -2.0340 0.9614
8.4629 1.8108 -2.0340 0.9651
8.0106 3.2757 -2.0340 0.9651
7.6889 3.9724 -2.0340 0.9651
6.8674 5.2669 -2.0340 0.9651
5.8302 6.3960 -2.0340 0.9651
5.2408 6.8873 -2.0340 0.9651
4.6102 7.3245 -2.0340 0.9651
3.9432 7.7040 -2.0340 0.9651
1.7787 8.4698 -2.0340 0.9651
1.0214 8.5940 -2.0340 0.9651
0.2562 8.6506 -2.0340 0.9651
7.2713 2.9734 -2.0340 0.9681
6.2336 4.7808 -2.0340 0.9681
5.7856 5.3141 -2.0340 0.9681
5.2921 5.8057 -2.0340 0.9681
4.7571 6.2517 -2.0340 0.9681
2.9458 7.2825 -2.0340 0.9681
0.2325 7.8523 -2.0340 0.9681
-0.4638 7.8420 -2.0340 0.9681
6.8651 2.1197 -2.0340 0.9706
6.6504 2.7195 -2.0340 0.9706
5.2915 4.8603 -2.0340 0.9706
4.3509 5.7178 -2.0340 0.9706
3.8273 6.0807 -2.0340 0.9706
3.2736 6.3958 -2.0340 0.9706
2.0937 6.8731 -2.0340 0.9706
0.8480 7.1346 -2.0340 0.9706
6.3185 1.9510 -2.0340 0.9727
6.1209 2.5029 -2.0340 0.9727
5.8751 3.0353 -2.0340 0.9727
5.5832 3.5438 -2.0340 0.9727
5.2474 4.0244 -2.0340 0.9727
4.8703 4.4734 -2.0340 0.9727
4.4549 4.8872 -2.0340 0.9727
4.0045 5.2626 -2.0340 0.9727
3.5226 5.5966 -2.0340 0.9727
3.0130 5.8866 -2.0340 0.9727
2.4798 6.1304 -2.0340 0.9727
1.9270 6.3259 -2.0340 0.9727
0.7805 6.5666 -2.0340 0.9727
0.1957 6.6100 -2.0340 0.9727
-0.3905 6.6013 -2.0340 0.9727
5.9836 1.2803 -2.0340 0.9745
5.6637 2.3160 -2.0340 0.9745
5.1662 3.2791 -2.0340 0.9745
4.8554 3.7238 -2.0340 0.9745
4.5065 4.1392 -2.0340 0.9745
3.2595 5.1786 -2.0340 0.9745
2.2946 5.6725 -2.0340 0.9745
0.1812 6.1163 -2.0340 0.9745
-0.3613 6.1082 -2.0340 0.9745
5.5618 1.1901 -2.0340 0.9761
5.0532 2.6107 -2.0340 0.9761
4.8021 3.0480 -2.0340 0.9761
4.5132 3.4613 -2.0340 0.9761
4.1889 3.8475 -2.0340 0.9761
3.8316 4.2035 -2.0340 0.9761
3.0298 4.8136 -2.0340 0.9761
2.5915 5.0631 -2.0340 0.9761
2.1328 5.2727 -2.0340 0.9761
1.6574 5.4409 -2.0340 0.9761
0.6713 5.6479 -2.0340 0.9761
0.1684 5.6852 -2.0340 0.9761
5.0714 1.5659 -2.0340 0.9775
4.9127 2.0089 -2.0340 0.9775
3.9089 3.5904 -2.0340 0.9775
3.5756 3.9225 -2.0340 0.9775
1.9903 4.9203 -2.0340 0.9775
1.5466 5.0772 -2.0340 0.9775
4.4153 2.2811 -2.0340 0.9787
4.1959 2.6632 -2.0340 0.9787
3.9435 3.0244 -2.0340 0.9787
3.0094 3.9549 -2.0340 0.9787
1.4482 4.7540 -2.0340 0.9787
1.0214 4.8636 -2.0340 0.9787
0.1471 4.9675 -2.0340 0.9787
4.3198 1.7664 -2.0340 0.9798
3.4371 3.1571 -2.0340 0.9798
3.1440 3.4491 -2.0340 0.9798
2.8261 3.7140 -2.0340 0.9798
2.4861 3.9498 -2.0340 0.9798
2.1264 4.1544 -2.0340 0.9798
1.7501 4.3264 -2.0340 0.9798
0.9591 4.5674 -2.0340 0.9798
0.5509 4.6344 -2.0340 0.9798
0.1382 4.6649 -2.0340 0.9798
-0.2755 4.6588 -2.0340 0.9798
4.2968 0.9194 -2.0339 0.9808
4.0671 1.6631 -2.0340 0.9808
3.9039 2.0169 -2.0340 0.9808
3.2361 2.9724 -2.0340 0.9808
2.9602 3.2474 -2.0340 0.9808
2.0021 3.9115 -2.0340 0.9808
1.6478 4.0735 -2.0340 0.9808
1.2804 4.2034 -2.0340 0.9808
0.5187 4.3634 -2.0340 0.9808
3.8380 1.5695 -2.0340 0.9817
3.6839 1.9032 -2.0340 0.9817
3.0538 2.8050 -2.0340 0.9817
2.2088 3.5092 -2.0340 0.9817
1.8893 3.6911 -2.0340 0.9817
1.2083 3.9666 -2.0340 0.9817
0.4894 4.1175 -2.0340 0.9817
-0.2448 4.1392 -2.0339 0.9817
2.1085 0.4511 -1.1186 0.9903
3.7461 1.1567 -2.0339 0.9825
3.6289 1.4840 -2.0339 0.9825
3.4832 1.7996 -2.0340 0.9825
3.3101 2.1010 -2.0340 0.9825
2.6412 2.8975 -2.0340 0.9825
2.3742 3.1201 -2.0340 0.9825
2.0885 3.3181 -2.0340 0.9825
1.7864 3.4900 -2.0340 0.9825
1.4702 3.6346 -2.0340 0.9825
1.1425 3.7505 -2.0340 0.9825
0.8058 3.8369 -2.0340 0.9825
0.4628 3.8932 -2.0339 0.9825
0.1161 3.9189 -2.0339 0.9825
-0.2315 3.9137 -2.0339 0.9825
1.8570 0.3973 -1.0401 0.9914
3.2993 1.7046 -2.0339 0.9832
2.9468 2.2600 -2.0340 0.9832
2.5018 2.7445 -2.0340 0.9832
2.2488 2.9553 -2.0340 0.9832
1.9782 3.1429 -2.0340 0.9832
1.6921 3.3057 -2.0340 0.9832
1.3926 3.4426 -2.0340 0.9832
0.7632 3.6343 -2.0339 0.9832
0.4383 3.6876 -2.0339 0.9832
0.1100 3.7119 -2.0339 0.9832
1.7148 0.3669 -1.0125 0.9919
1.7191 0.5308 -1.0387 0.9917
3.1299 1.6170 -2.0339 0.9839
2.5946 2.3831 -2.0339 0.9839
2.1333 2.8035 -2.0340 0.9839
1.8766 2.9815 -2.0339 0.9839
1.6051 3.1360 -2.0339 0.9839
1.0266 3.3700 -2.0339 0.9839
0.4158 3.4983 -2.0339 0.9839
