ply
format ascii 1.0
element vertex 210
property float32 x
property float32 y
property float32 z
property float32 I
end_header
-11.8827 -8.1120 -0.7297 0.9440
-11.6868 -7.9784 -1.0375 0.9448
-11.5250 -7.8678 -1.3397 0.9455
-16.9306 -2.5456 -2.0337 0.9334
-16.6334 -4.0562 -2.0337 0.9334
-16.2017 -5.5340 -2.0337 0.9334
-15.6390 -6.9670 -2.0337 0.9334
-14.9498 -8.3437 -2.0337 0.9334
-11.4673 -7.8285 -1.6493 0.9456
-13.2154 -10.8840 -2.0337 0.9334
-11.0545 -13.0730 -2.0337 0.9334
-8.5368 -14.8401 -2.0337 0.9334
-7.1692 -15.5471 -2.0337 0.9334
-5.7436 -16.1283 -2.0337 0.9334
-4.2715 -16.5791 -2.0337 0.9334
-2.7650 -16.8959 -2.0337 0.9334
-1.2360 -17.0761 -2.0337 0.9334
-14.1940 -2.1341 -2.0338 0.9437
-13.9449 -3.4006 -2.0337 0.9437
-11.0795 -9.1249 -2.0337 0.9437
-10.2149 -10.0832 -2.0337 0.9437
-9.2677 -10.9601 -2.0337 0.9437
-8.2457 -11.7483 -2.0337 0.9437
-4.8152 -13.5215 -2.0337 0.9437
-3.5811 -13.8995 -2.0337 0.9437
-2.3180 -14.1650 -2.0337 0.9437
-1.0361 -14.3160 -2.0337 0.9437
1.5423 -14.2705 -2.0338 0.9437
-11.9939 -2.9248 -2.0338 0.9512
-11.6826 -3.9904 -2.0338 0.9512
-11.2769 -5.0237 -2.0337 0.9512
-9.5293 -7.8482 -2.0337 0.9512
-8.7857 -8.6725 -2.0337 0.9512
-7.0921 -10.1046 -2.0337 0.9512
-6.1557 -10.7009 -2.0337 0.9512
-1.9937 -12.1832 -2.0337 0.9512
-10.7000 -1.6088 -2.0338 0.9569
-10.2394 -3.4974 -2.0338 0.9569
-8.9363 -6.1006 -2.0338 0.9569
-8.3521 -6.8787 -2.0338 0.9569
-6.9864 -8.2622 -2.0337 0.9569
-4.5309 -9.8257 -2.0338 0.9569
-1.7474 -10.6781 -2.0338 0.9569
-0.7811 -10.7920 -2.0338 0.9569
0.1915 -10.8186 -2.0338 0.9569
-9.6047 -0.5700 -2.0338 0.9614
-9.5146 -1.4305 -2.0338 0.9614
-9.3476 -2.2795 -2.0338 0.9614
-9.1050 -3.1100 -2.0338 0.9614
-8.4015 -4.6890 -2.0338 0.9614
-7.9463 -5.4248 -2.0338 0.9614
-6.8473 -6.7591 -2.0338 0.9614
-6.2125 -7.3469 -2.0338 0.9614
-3.2278 -9.0638 -2.0338 0.9614
-2.4005 -9.3171 -2.0338 0.9614
-0.6946 -9.5964 -2.0338 0.9614
0.1703 -9.6200 -2.0338 0.9614
1.0338 -9.5659 -2.0338 0.9614
-8.6385 -0.5127 -2.0338 0.9651
-8.4073 -2.0502 -2.0338 0.9651
-7.9047 -3.5215 -2.0338 0.9651
-7.5564 -4.2173 -2.0338 0.9651
-7.1470 -4.8791 -2.0338 0.9651
-6.6797 -5.5013 -2.0338 0.9651
-5.5875 -6.6078 -2.0338 0.9651
-4.3150 -7.5010 -2.0338 0.9651
-3.6237 -7.8583 -2.0338 0.9651
-2.9031 -8.1521 -2.0338 0.9651
-1.3975 -8.5400 -2.0338 0.9651
-0.6247 -8.6311 -2.0338 0.9651
0.1532 -8.6523 -2.0338 0.9651
-7.8413 -0.4654 -2.0338 0.9681
-7.6314 -1.8610 -2.0338 0.9681
-6.0633 -4.9937 -2.0338 0.9681
-5.5902 -5.5182 -2.0338 0.9681
-5.0719 -5.9980 -2.0338 0.9681
-3.9168 -6.8087 -2.0338 0.9681
-3.2893 -7.1331 -2.0338 0.9681
-1.2686 -7.7519 -2.0338 0.9681
0.8440 -7.8096 -2.0338 0.9681
-7.1717 -0.4257 -2.0338 0.9706
-7.1045 -1.0682 -2.0338 0.9706
-6.9797 -1.7021 -2.0338 0.9706
-6.7986 -2.3222 -2.0338 0.9706
-4.6388 -5.4859 -2.0338 0.9706
-4.1273 -5.8804 -2.0338 0.9706
-3.5823 -6.2274 -2.0338 0.9706
-3.0084 -6.5240 -2.0338 0.9706
-1.7924 -6.9571 -2.0338 0.9706
-0.5187 -7.1655 -2.0338 0.9706
0.7720 -7.1427 -2.0338 0.9706
-6.6008 -0.3918 -2.0338 0.9727
-6.5389 -0.9831 -2.0338 0.9727
-5.7740 -3.2225 -2.0338 0.9727
-3.2971 -5.7317 -2.0338 0.9727
-2.2183 -6.2292 -2.0338 0.9727
-1.6498 -6.4032 -2.0338 0.9727
-0.4773 -6.5951 -2.0338 0.9727
0.7105 -6.5741 -2.0338 0.9727
-6.1078 -0.3625 -2.0338 0.9745
-5.3427 -2.9819 -2.0338 0.9745
-5.0532 -3.4498 -2.0338 0.9745
-4.7229 -3.8897 -2.0338 0.9745
-3.9506 -4.6721 -2.0338 0.9745
-3.5150 -5.0080 -2.0338 0.9745
-3.0509 -5.3036 -2.0338 0.9745
-2.0527 -5.7639 -2.0338 0.9745
-1.5266 -5.9250 -2.0338 0.9745
-0.4417 -6.1026 -2.0338 0.9745
-5.6241 -0.8456 -2.0338 0.9761
-5.5254 -1.3474 -2.0338 0.9761
-5.3820 -1.8383 -2.0338 0.9761
-5.1951 -2.3144 -2.0338 0.9761
-4.6971 -3.2066 -2.0338 0.9761
-4.3901 -3.6156 -2.0338 0.9761
-3.2673 -4.6551 -2.0338 0.9761
-2.8359 -4.9298 -2.0338 0.9761
-1.9080 -5.3577 -2.0338 0.9761
-1.4190 -5.5075 -2.0338 0.9761
-0.4106 -5.6725 -2.0338 0.9761
0.1006 -5.6865 -2.0338 0.9761
-5.2980 -0.3145 -2.0339 0.9775
-5.2483 -0.7891 -2.0338 0.9775
-5.0223 -1.7155 -2.0338 0.9775
-4.6343 -2.5865 -2.0338 0.9775
-4.3832 -2.9923 -2.0338 0.9775
-3.0489 -4.3440 -2.0338 0.9775
-2.2224 -4.8195 -2.0338 0.9775
-1.7805 -4.9997 -2.0338 0.9775
-1.3241 -5.1394 -2.0338 0.9775
-0.8571 -5.2376 -2.0338 0.9775
-0.3831 -5.2934 -2.0338 0.9775
0.0939 -5.3064 -2.0338 0.9775
-2.1214 -0.1259 -0.8698 0.9909
-2.1529 -0.5250 -0.9070 0.9905
-4.1041 -2.8018 -2.0338 0.9788
-3.5366 -3.4910 -2.0338 0.9788
-3.2087 -3.7946 -2.0338 0.9788
-2.4779 -4.3075 -2.0338 0.9788
-0.8026 -4.9042 -2.0338 0.9788
-0.3587 -4.9564 -2.0338 0.9788
0.0879 -4.9686 -2.0338 0.9788
0.5339 -4.9406 -2.0338 0.9788
-1.9172 -0.1138 -0.8370 0.9917
-4.4162 -1.5085 -2.0338 0.9798
-4.2629 -1.8991 -2.0338 0.9798
-4.0750 -2.2743 -2.0338 0.9798
-3.8542 -2.6312 -2.0338 0.9798
-3.3212 -3.2784 -2.0338 0.9798
-2.6810 -3.8198 -2.0338 0.9798
-2.3270 -4.0452 -2.0338 0.9798
-0.7537 -4.6055 -2.0338 0.9798
0.0826 -4.6660 -2.0338 0.9798
-1.5961 -0.0948 -0.7401 0.9930
-1.6105 -0.2422 -0.7539 0.9928
-1.7298 -0.5909 -0.8461 0.9920
-4.0136 -1.7880 -2.0338 0.9808
-3.8368 -2.1413 -2.0338 0.9808
-3.3916 -2.7933 -2.0338 0.9808
-3.1270 -3.0867 -2.0338 0.9808
-2.8371 -3.3551 -2.0338 0.9808
-2.1909 -3.8087 -2.0338 0.9808
-1.4741 -4.1392 -2.0338 0.9808
-0.7096 -4.3362 -2.0338 0.9808
-0.3172 -4.3824 -2.0338 0.9808
-1.3480 -0.2027 -0.6686 0.9939
-1.3195 -0.3218 -0.6662 0.9940
-1.2755 -0.4357 -0.6612 0.9940
-3.7874 -1.6873 -2.0338 0.9817
-3.6205 -2.0207 -2.0338 0.9817
-3.4243 -2.3377 -2.0338 0.9817
-2.6773 -3.1661 -2.0338 0.9817
-1.7362 -3.7653 -2.0338 0.9817
-1.0345 -4.0152 -2.0338 0.9817
-0.6696 -4.0919 -2.0338 0.9817
0.0734 -4.1457 -2.0339 0.9817
0.4455 -4.1223 -2.0339 0.9817
-3.4233 -1.9106 -2.0338 0.9825
-3.2379 -2.2104 -2.0338 0.9825
-3.0262 -2.4924 -2.0338 0.9825
-2.7901 -2.7541 -2.0338 0.9825
-2.5314 -2.9937 -2.0338 0.9825
-2.2523 -3.2090 -2.0338 0.9825
-0.2830 -3.9102 -2.0339 0.9825
-1.0813 -0.0642 -0.5933 0.9951
-1.0719 -0.1612 -0.5937 0.9951
-1.0462 -0.2552 -0.5898 0.9951
-1.0280 -0.3512 -0.5950 0.9951
-0.9987 -0.4450 -0.5989 0.9950
-3.0669 -2.0937 -2.0339 0.9832
-2.6427 -2.6087 -2.0338 0.9832
-2.1333 -3.0395 -2.0338 0.9832
-0.9265 -3.5960 -2.0339 0.9832
-0.5997 -3.6647 -2.0339 0.9832
-0.2681 -3.7037 -2.0339 0.9832
0.0657 -3.7129 -2.0339 0.9832
-0.9899 -0.0588 -0.5725 0.9954
-0.9829 -0.1478 -0.5738 0.9954
-0.9499 -0.3245 -0.5795 0.9954
-0.8963 -0.5003 -0.5926 0.9953
-2.9094 -1.9862 -2.0339 0.9839
-2.7192 -2.2395 -2.0339 0.9839
-2.5070 -2.4747 -2.0339 0.9839
-1.7566 -3.0536 -2.0339 0.9839
-1.1818 -3.3186 -2.0339 0.9839
-0.8789 -3.4113 -2.0339 0.9839
-0.5689 -3.4765 -2.0339 0.9839
-0.2543 -3.5136 -2.0339 0.9839
0.0623 -3.5222 -2.0339 0.9839
0.3785 -3.5024 -2.0339 0.9839
