ply
format ascii 1.0
element vertex 193
property float32 x
property float32 y
property float32 z
property float32 I
end_header
2.6943 17.7859 2.7558 0.9298
2.6679 17.6123 1.9128 0.9308
2.6377 17.4126 1.4908 0.9317
2.6752 17.6599 1.1076 0.9309
2.7184 17.9453 0.3066 0.9300
2.9316 19.3534 -0.1102 0.9247
14.5119 8.8292 -1.2455 0.9341
2.8033 18.5062 -1.3724 0.9277
2.7963 18.4599 -1.7925 0.9277
17.1194 0.3810 -2.0341 0.9333
17.0210 1.8737 -2.0341 0.9333
16.4361 4.8049 -2.0341 0.9333
15.9541 6.2211 -2.0341 0.9333
15.3503 7.5898 -2.0341 0.9333
14.6294 8.9006 -2.0341 0.9333
11.8229 12.3881 -2.0341 0.9333
10.6966 13.3727 -2.0341 0.9333
9.4886 14.2552 -2.0341 0.9333
8.2082 15.0290 -2.0341 0.9333
6.8652 15.6880 -2.0341 0.9333
2.5647 16.9311 -2.0341 0.9333
14.2694 1.5708 -2.0340 0.9437
14.0780 2.8102 -2.0341 0.9437
13.7791 4.0282 -2.0341 0.9437
13.3750 5.2154 -2.0341 0.9437
12.2644 7.4618 -2.0341 0.9437
10.7801 9.4808 -2.0341 0.9437
7.9547 11.9507 -2.0341 0.9437
6.8813 12.5994 -2.0341 0.9437
4.5855 13.6039 -2.0341 0.9437
3.3807 13.9522 -2.0341 0.9437
2.1501 14.1940 -2.0341 0.9437
11.8510 3.4645 -2.0340 0.9512
11.5034 4.4856 -2.0340 0.9512
11.0681 5.4725 -2.0341 0.9512
9.9479 7.3138 -2.0341 0.9512
9.2716 8.1541 -2.0341 0.9512
8.5246 8.9322 -2.0341 0.9512
7.7125 9.6421 -2.0341 0.9512
6.8416 10.2785 -2.0341 0.9512
5.9184 10.8363 -2.0341 0.9512
3.9439 11.7004 -2.0341 0.9512
1.8493 12.2078 -2.0341 0.9512
10.8187 0.2407 -2.0340 0.9569
9.7006 4.7964 -2.0340 0.9569
8.1261 7.1466 -2.0340 0.9569
7.4713 7.8286 -2.0341 0.9569
6.7596 8.4508 -2.0341 0.9569
5.1871 9.4975 -2.0341 0.9569
4.3384 9.9139 -2.0340 0.9569
9.6200 0.2141 -2.0340 0.9614
9.5647 1.0529 -2.0340 0.9614
9.4364 1.8837 -2.0340 0.9614
9.2359 2.7000 -2.0340 0.9614
8.9651 3.4958 -2.0340 0.9614
8.6258 4.2649 -2.0340 0.9614
8.2207 5.0015 -2.0340 0.9614
6.6436 6.9612 -2.0340 0.9614
5.3319 8.0104 -2.0340 0.9614
4.6124 8.4452 -2.0340 0.9614
3.8578 8.8155 -2.0340 0.9614
3.0736 9.1186 -2.0340 0.9614
2.2660 9.3520 -2.0340 0.9614
1.4412 9.5140 -2.0340 0.9614
8.6522 0.1925 -2.0340 0.9651
8.6025 0.9469 -2.0340 0.9651
8.4870 1.6941 -2.0340 0.9651
8.3068 2.4284 -2.0340 0.9651
8.0632 3.1441 -2.0340 0.9651
6.9729 5.1265 -2.0340 0.9651
5.4060 6.7585 -2.0340 0.9651
4.7955 7.2045 -2.0340 0.9651
3.4696 7.9286 -2.0340 0.9651
2.7644 8.2012 -2.0340 0.9651
7.3190 2.8539 -2.0340 0.9681
7.0420 3.4819 -2.0340 0.9681
6.7112 4.0832 -2.0340 0.9681
6.3293 4.6533 -2.0340 0.9681
5.4237 5.6830 -2.0340 0.9681
4.9070 6.1347 -2.0340 0.9681
3.7655 6.8946 -2.0340 0.9681
2.5092 7.4442 -2.0340 0.9681
7.1830 0.1598 -2.0340 0.9706
7.0459 1.4065 -2.0340 0.9706
6.8962 2.0160 -2.0340 0.9706
6.6939 2.6102 -2.0340 0.9706
6.1381 3.7345 -2.0340 0.9706
5.7888 4.2559 -2.0340 0.9706
5.3952 4.7449 -2.0340 0.9706
3.9812 5.9811 -2.0340 0.9706
2.8804 6.5822 -2.0340 0.9706
2.2950 6.8085 -2.0340 0.9706
1.0761 7.1038 -2.0340 0.9706
6.4850 1.2945 -2.0340 0.9727
6.1611 2.4024 -2.0340 0.9727
5.6495 3.4371 -2.0340 0.9727
5.3279 3.9171 -2.0340 0.9727
4.9657 4.3672 -2.0340 0.9727
3.6642 5.5049 -2.0340 0.9727
3.1698 5.8037 -2.0340 0.9727
2.6511 6.0582 -2.0340 0.9727
2.1123 6.2665 -2.0340 0.9727
1.5572 6.4269 -2.0340 0.9727
6.1174 0.1361 -2.0340 0.9745
5.8732 1.7169 -2.0340 0.9745
5.7009 2.2230 -2.0340 0.9745
5.4851 2.7121 -2.0340 0.9745
4.5948 4.0410 -2.0340 0.9745
4.2246 4.4266 -2.0340 0.9745
3.8221 4.7784 -2.0340 0.9745
2.4531 5.6057 -2.0340 0.9745
1.9545 5.7984 -2.0340 0.9745
0.9164 6.0499 -2.0340 0.9745
5.6863 0.1265 -2.0340 0.9761
5.4593 1.5959 -2.0340 0.9761
4.8591 2.9563 -2.0340 0.9761
4.2710 3.7562 -2.0340 0.9761
3.5528 4.4417 -2.0340 0.9761
2.7263 4.9918 -2.0340 0.9761
2.2802 5.2107 -2.0340 0.9761
0.8518 5.6236 -2.0340 0.9761
4.7578 2.3524 -2.0340 0.9775
4.5343 2.7587 -2.0340 0.9775
4.2762 3.1439 -2.0340 0.9775
2.5441 4.6581 -2.0340 0.9775
1.2499 5.1583 -2.0340 0.9775
4.7700 1.3945 -2.0340 0.9787
4.6302 1.8054 -2.0340 0.9787
4.0040 2.9437 -2.0340 0.9787
3.7318 3.2820 -2.0340 0.9787
2.7537 4.1370 -2.0340 0.9787
2.3821 4.3616 -2.0340 0.9787
1.9923 4.5528 -2.0340 0.9787
1.5874 4.7094 -2.0340 0.9787
0.7443 4.9136 -2.0340 0.9787
4.6390 0.5106 -2.0339 0.9798
4.4795 1.3095 -2.0340 0.9798
4.1836 2.0685 -2.0340 0.9798
3.9871 2.4257 -2.0340 0.9798
3.7602 2.7645 -2.0340 0.9798
3.5046 3.0821 -2.0340 0.9798
3.2221 3.3762 -2.0340 0.9798
2.9152 3.6445 -2.0340 0.9798
2.2370 4.0959 -2.0340 0.9798
1.4907 4.4225 -2.0340 0.9798
0.6989 4.6143 -2.0340 0.9798
4.2176 1.2329 -2.0340 0.9808
4.0939 1.5963 -2.0340 0.9808
3.9389 1.9475 -2.0340 0.9808
3.2996 2.9019 -2.0340 0.9808
2.7447 3.4314 -2.0340 0.9808
1.4035 4.1639 -2.0340 0.9808
1.0348 4.2705 -2.0340 0.9808
4.1455 0.0922 -2.0339 0.9817
4.1216 0.4537 -2.0339 0.9817
3.9799 1.1635 -2.0339 0.9817
3.8632 1.5064 -2.0340 0.9817
3.7170 1.8378 -2.0340 0.9817
3.5424 2.1552 -2.0340 0.9817
3.3408 2.4562 -2.0340 0.9817
2.5900 3.2381 -2.0340 0.9817
2.2976 3.4518 -2.0340 0.9817
1.9875 3.6391 -2.0340 0.9817
0.6211 4.0997 -2.0340 0.9817
2.0811 0.2291 -1.0861 0.9906
3.7632 1.1001 -2.0339 0.9825
3.6528 1.4243 -2.0339 0.9825
3.5145 1.7377 -2.0340 0.9825
3.3495 2.0378 -2.0340 0.9825
3.1588 2.3224 -2.0340 0.9825
2.9441 2.5892 -2.0340 0.9825
2.4490 3.0617 -2.0340 0.9825
1.5718 3.5918 -2.0340 0.9825
1.2523 3.7153 -2.0340 0.9825
0.5872 3.8764 -2.0339 0.9825
1.8560 0.3705 -1.0366 0.9914
3.1726 1.9302 -2.0339 0.9832
2.7886 2.4525 -2.0340 0.9832
2.0577 3.0914 -2.0340 0.9832
1.1862 3.5191 -2.0340 0.9832
0.8746 3.6092 -2.0339 0.9832
0.5561 3.6717 -2.0339 0.9832
1.7186 0.1892 -0.9982 0.9920
1.7143 0.3422 -1.0093 0.9920
1.7147 0.5012 -1.0314 0.9918
1.7291 0.6742 -1.0715 0.9915
3.1580 1.5614 -2.0339 0.9839
2.6454 2.3265 -2.0339 0.9839
2.4323 2.5485 -2.0339 0.9839
1.6886 3.0918 -2.0339 0.9839
1.1253 3.3383 -2.0339 0.9839
0.8296 3.4238 -2.0339 0.9839
0.5277 3.4831 -2.0339 0.9839
