ply
format ascii 1.0
element vertex 190
property float32 x
property float32 y
property float32 z
property float32 I
end_header
16.6943 -4.2680 -0.8739 0.9333
16.2864 -4.1637 -1.2326 0.9348
2.8813 -6.0789 -0.6458 0.9733
16.1457 -4.1278 -1.5999 0.9352
1.7792 -6.5034 -0.8009 0.9732
2.3076 -6.2282 -0.7890 0.9736
11.1086 -13.0293 -2.0338 0.9334
12.2082 -12.0054 -2.0339 0.9334
13.2139 -10.8889 -2.0339 0.9334
14.9130 -8.4135 -2.0339 0.9334
15.5934 -7.0737 -2.0340 0.9334
16.5896 -4.2413 -2.0340 0.9334
16.8978 -2.7704 -2.0340 0.9333
17.0758 -1.2783 -2.0340 0.9333
17.1222 0.2237 -2.0340 0.9333
1.7027 -6.2238 -0.9142 0.9743
2.2860 -6.1698 -0.9323 0.9738
2.8091 -5.9267 -0.9293 0.9739
7.2616 -12.3819 -2.0338 0.9437
10.2349 -10.0648 -2.0339 0.9437
11.0780 -9.1288 -2.0339 0.9437
11.8357 -8.1225 -2.0339 0.9437
14.3543 0.1876 -2.0340 0.9437
14.2827 1.4454 -2.0340 0.9437
1.7662 -6.4557 -1.1026 0.9732
2.2320 -6.0239 -1.0583 0.9743
2.7713 -5.8466 -1.0659 0.9741
6.2456 -10.6495 -2.0338 0.9512
11.6476 -4.0951 -2.0340 0.9512
11.9619 -3.0582 -2.0340 0.9512
12.1840 -1.9976 -2.0340 0.9512
12.2842 1.2431 -2.0340 0.9512
2.7065 -5.7101 -1.1877 0.9746
6.2713 -8.8180 -2.0339 0.9569
8.3508 -6.8815 -2.0339 0.9569
8.9220 -6.1229 -2.0339 0.9569
10.7911 -0.8078 -2.0340 0.9569
10.8205 0.1414 -2.0340 0.9569
1.6750 -6.1225 -1.3417 0.9744
2.1341 -5.7596 -1.2983 0.9752
5.5765 -7.8411 -2.0339 0.9614
6.8605 -6.7465 -2.0339 0.9614
7.4256 -6.1191 -2.0339 0.9614
8.3804 -4.7280 -2.0339 0.9614
9.4955 -1.5568 -2.0340 0.9614
9.6216 0.1258 -2.0340 0.9614
1.6167 -5.9094 -1.4399 0.9751
2.1770 -5.8754 -1.4726 0.9746
5.0155 -7.0523 -2.0339 0.9651
5.6145 -6.5854 -2.0339 0.9651
6.1703 -6.0678 -2.0339 0.9651
6.6786 -5.5035 -2.0339 0.9651
7.1354 -4.8968 -2.0339 0.9651
7.8811 -3.5752 -2.0339 0.9651
8.1643 -2.8704 -2.0339 0.9651
8.3846 -2.1436 -2.0339 0.9651
8.5403 -1.4002 -2.0340 0.9651
8.6302 -0.6461 -2.0340 0.9651
8.6537 0.1131 -2.0340 0.9651
1.6070 -5.8738 -1.5767 0.9752
2.1730 -5.8648 -1.6194 0.9745
2.6645 -5.6214 -1.6107 0.9746
3.9739 -6.7759 -2.0339 0.9681
4.5527 -6.4014 -2.0339 0.9681
5.6009 -5.5079 -2.0339 0.9681
6.4770 -4.4449 -2.0339 0.9681
7.4109 -2.6055 -2.0339 0.9681
7.7521 -1.2710 -2.0340 0.9681
7.8550 0.1027 -2.0340 0.9681
1.6287 -5.9531 -1.7472 0.9747
2.1954 -5.9252 -1.7888 0.9741
3.6345 -6.1973 -2.0339 0.9706
4.1639 -5.8548 -2.0339 0.9706
4.6612 -5.4672 -2.0339 0.9706
5.1226 -5.0375 -2.0339 0.9706
5.5446 -4.5690 -2.0339 0.9706
5.9238 -4.0653 -2.0339 0.9706
7.1842 0.0939 -2.0340 0.9706
1.1790 -6.5065 -2.0338 0.9727
1.7449 -6.3781 -2.0338 0.9727
2.2974 -6.2005 -2.0339 0.9727
2.8322 -5.9753 -2.0339 0.9727
3.3452 -5.7039 -2.0339 0.9727
3.8324 -5.3887 -2.0339 0.9727
4.2901 -5.0320 -2.0339 0.9727
4.7148 -4.6365 -2.0339 0.9727
5.4522 -3.7417 -2.0339 0.9727
5.7593 -3.2493 -2.0339 0.9727
6.5943 -0.4937 -2.0340 0.9727
6.5793 0.6658 -2.0340 0.9727
1.0909 -6.0205 -2.0338 0.9745
2.1259 -5.7374 -2.0339 0.9745
3.9697 -4.6562 -2.0339 0.9745
4.7220 -3.8912 -2.0339 0.9745
5.0450 -3.4622 -2.0339 0.9745
5.3291 -3.0066 -2.0339 0.9745
5.5723 -2.5278 -2.0339 0.9745
5.7725 -2.0295 -2.0339 0.9745
5.9282 -1.5156 -2.0339 0.9745
6.1018 -0.4568 -2.0339 0.9745
6.1184 0.0799 -2.0340 0.9745
1.0141 -5.5963 -2.0338 0.9761
1.5009 -5.4858 -2.0339 0.9761
1.9760 -5.3331 -2.0339 0.9761
2.4360 -5.1393 -2.0339 0.9761
2.8772 -4.9060 -2.0339 0.9761
3.2962 -4.6348 -2.0339 0.9761
4.3892 -3.6170 -2.0339 0.9761
4.9536 -2.7947 -2.0339 0.9761
5.3657 -1.8865 -2.0339 0.9761
5.5104 -1.4088 -2.0339 0.9761
5.6127 -0.9202 -2.0339 0.9761
2.6849 -4.5781 -2.0339 0.9775
3.0760 -4.3251 -2.0339 0.9775
3.4434 -4.0387 -2.0339 0.9775
3.7842 -3.7213 -2.0339 0.9775
4.3761 -3.0031 -2.0339 0.9775
4.8334 -2.1926 -2.0339 0.9775
5.0071 -1.7604 -2.0339 0.9775
5.1421 -1.3146 -2.0339 0.9775
5.2376 -0.8587 -2.0339 0.9775
5.3071 0.0694 -2.0339 0.9775
5.2806 0.5344 -2.0340 0.9775
0.8861 -4.8898 -2.0339 0.9788
2.8802 -4.0498 -2.0339 0.9788
3.2241 -3.7816 -2.0339 0.9788
3.5433 -3.4844 -2.0339 0.9788
4.3283 -2.4419 -2.0339 0.9788
4.6883 -1.6483 -2.0339 0.9788
4.9444 0.5003 -2.0339 0.9788
1.2315 -4.5014 -2.0339 0.9798
1.6214 -4.3761 -2.0339 0.9798
3.6016 -2.9679 -2.0339 0.9798
3.8479 -2.6407 -2.0339 0.9798
4.0646 -2.2932 -2.0339 0.9798
4.5215 -1.1560 -2.0339 0.9798
4.6539 -0.3484 -2.0339 0.9798
4.6433 0.4699 -2.0339 0.9798
1.1595 -4.2382 -2.0339 0.9808
1.8820 -3.9705 -2.0339 0.9808
2.5466 -3.5807 -2.0339 0.9808
2.8507 -3.3437 -2.0339 0.9808
3.1329 -3.0809 -2.0339 0.9808
3.3910 -2.7944 -2.0339 0.9808
3.6229 -2.4863 -2.0339 0.9808
3.8270 -2.1591 -2.0339 0.9808
4.0016 -1.8153 -2.0339 0.9808
4.1453 -1.4574 -2.0339 0.9808
4.2571 -1.0884 -2.0339 0.9808
4.3818 -0.3280 -2.0339 0.9808
4.3937 0.0574 -2.0339 0.9808
0.7393 -4.0799 -2.0339 0.9817
1.0941 -3.9994 -2.0339 0.9817
1.4406 -3.8880 -2.0339 0.9817
2.0976 -3.5766 -2.0339 0.9817
2.6901 -3.1553 -2.0339 0.9817
3.4188 -2.3462 -2.0339 0.9817
3.7761 -1.7129 -2.0339 0.9817
4.0918 -0.6709 -2.0339 0.9817
4.1349 -0.3096 -2.0339 0.9817
0.6990 -3.8577 -2.0339 0.9825
1.0346 -3.7815 -2.0339 0.9825
1.6792 -3.5427 -2.0339 0.9825
1.9834 -3.3818 -2.0339 0.9825
2.2722 -3.1949 -2.0339 0.9825
2.5436 -2.9834 -2.0339 0.9825
2.7954 -2.7489 -2.0339 0.9825
3.0257 -2.4932 -2.0339 0.9825
3.4146 -1.9264 -2.0339 0.9825
3.6986 -1.3004 -2.0339 0.9825
2.0772 -0.1555 -1.0806 0.9907
2.0764 0.2101 -1.0827 0.9906
0.9799 -3.5818 -2.0339 0.9832
1.5905 -3.3556 -2.0339 0.9832
2.8659 -2.3616 -2.0339 0.9832
3.0619 -2.1012 -2.0339 0.9832
3.2343 -1.8247 -2.0339 0.9832
1.9827 -0.6971 -1.1511 0.9905
1.8511 -0.3035 -1.0274 0.9915
1.8518 -0.1386 -1.0171 0.9916
1.8513 0.0242 -1.0141 0.9916
0.9296 -3.3979 -2.0339 0.9839
1.2239 -3.3033 -2.0339 0.9839
1.7821 -3.0388 -2.0339 0.9839
2.2855 -2.6808 -2.0339 0.9839
2.7187 -2.2404 -2.0339 0.9839
1.7136 -0.4381 -1.0212 0.9919
1.7142 -0.2811 -1.0029 0.9920
1.7225 -0.1290 -0.9973 0.9921
1.7199 0.1740 -0.9980 0.9920
