ply
format ascii 1.0
element vertex 190
property float32 x
property float32 y
property float32 z
property float32 I
end_header
-11.9491 -7.7269 -1.3661 0.9444
-16.7072 -3.7406 -2.0337 0.9334
-11.9461 -7.7249 -1.6899 0.9443
-13.4992 -10.5300 -2.0337 0.9334
-12.5163 -11.6811 -2.0337 0.9334
-11.4357 -12.7409 -2.0337 0.9334
-10.2657 -13.7012 -2.0337 0.9334
-6.3139 -15.9136 -2.0337 0.9334
-4.8837 -16.4092 -2.0337 0.9334
-1.9202 -17.0127 -2.0337 0.9334
-14.3402 -0.6225 -2.0338 0.9437
-14.2291 -1.8866 -2.0338 0.9437
-13.6750 -4.3609 -2.0337 0.9437
-13.2363 -5.5516 -2.0337 0.9437
-12.6942 -6.6990 -2.0337 0.9437
-12.0529 -7.7940 -2.0337 0.9437
-8.6065 -11.4867 -2.0337 0.9437
-7.5584 -12.2020 -2.0337 0.9437
-6.4510 -12.8218 -2.0337 0.9437
-4.0943 -13.7570 -2.0337 0.9437
-2.8633 -14.0649 -2.0337 0.9437
-1.6098 -14.2629 -2.0337 0.9437
-12.0471 -2.6973 -2.0338 0.9512
-11.7618 -3.7507 -2.0338 0.9512
-10.9182 -5.7618 -2.0337 0.9512
-10.3666 -6.7036 -2.0337 0.9512
-9.7340 -7.5929 -2.0337 0.9512
-8.2461 -9.1872 -2.0337 0.9512
-7.4024 -9.8796 -2.0337 0.9512
-4.5528 -11.4750 -2.0337 0.9512
-3.5215 -11.8323 -2.0337 0.9512
-2.4627 -12.0971 -2.0337 0.9512
-0.2957 -12.3418 -2.0338 0.9512
-10.8102 -0.4693 -2.0338 0.9569
-10.7264 -1.4222 -2.0338 0.9569
-9.9781 -4.1850 -2.0338 0.9569
-9.5694 -5.0500 -2.0338 0.9569
-9.0860 -5.8754 -2.0338 0.9569
-8.5315 -6.6550 -2.0338 0.9569
-7.2274 -8.0523 -2.0337 0.9569
-4.8630 -9.6657 -2.0338 0.9569
-3.9904 -10.0575 -2.0338 0.9569
-3.0865 -10.3706 -2.0338 0.9569
-2.1585 -10.6027 -2.0338 0.9569
-1.2136 -10.7520 -2.0338 0.9569
-9.5381 -1.2646 -2.0338 0.9614
-9.3891 -2.1021 -2.0338 0.9614
-9.1667 -2.9232 -2.0338 0.9614
-8.5093 -4.4905 -2.0338 0.9614
-7.5863 -5.9177 -2.0338 0.9614
-6.4267 -7.1602 -2.0338 0.9614
-5.0666 -8.1793 -2.0338 0.9614
-3.5483 -8.9432 -2.0338 0.9614
-1.9193 -9.4281 -2.0338 0.9614
-1.0791 -9.5607 -2.0338 0.9614
-0.2305 -9.6187 -2.0338 0.9614
-8.5786 -1.1375 -2.0338 0.9651
-8.4446 -1.8907 -2.0338 0.9651
-8.2446 -2.6292 -2.0338 0.9651
-7.9801 -3.3471 -2.0338 0.9651
-7.6533 -4.0388 -2.0338 0.9651
-6.8232 -5.3224 -2.0338 0.9651
-5.7802 -6.4399 -2.0338 0.9651
-5.1888 -6.9253 -2.0338 0.9651
-3.8893 -7.7303 -2.0338 0.9651
-2.4685 -8.2940 -2.0338 0.9651
-0.9705 -8.5990 -2.0338 0.9651
-0.2073 -8.6512 -2.0338 0.9651
-7.7869 -1.0325 -2.0338 0.9681
-7.2437 -3.0382 -2.0338 0.9681
-6.5961 -4.2653 -2.0338 0.9681
-5.7427 -5.3594 -2.0338 0.9681
-4.1364 -6.6776 -2.0338 0.9681
-3.5304 -7.0169 -2.0338 0.9681
-2.2406 -7.5286 -2.0338 0.9681
-1.5670 -7.6971 -2.0338 0.9681
-0.8810 -7.8055 -2.0338 0.9681
-0.1882 -7.8528 -2.0338 0.9681
-7.1776 -0.3116 -2.0338 0.9706
-7.1220 -0.9443 -2.0338 0.9706
-6.8446 -2.1828 -2.0338 0.9706
-4.3079 -5.7494 -2.0338 0.9706
-2.6495 -6.6778 -2.0338 0.9706
-2.0493 -6.8857 -2.0338 0.9706
-1.4332 -7.0398 -2.0338 0.9706
-6.6062 -0.2868 -2.0338 0.9727
-6.4526 -1.4447 -2.0338 0.9727
-6.2997 -2.0090 -2.0338 0.9727
-6.0977 -2.5576 -2.0338 0.9727
-5.2137 -4.0670 -2.0338 0.9727
-4.8341 -4.5115 -2.0338 0.9727
-4.4168 -4.9209 -2.0338 0.9727
-3.9649 -5.2918 -2.0338 0.9727
-1.3191 -6.4795 -2.0338 0.9727
-6.1128 -0.2654 -2.0338 0.9745
-5.9707 -1.3368 -2.0338 0.9745
-5.6423 -2.3665 -2.0338 0.9745
-5.4112 -2.8556 -2.0338 0.9745
-4.0869 -4.5534 -2.0338 0.9745
-2.7500 -5.4657 -2.0338 0.9745
-1.7454 -5.8643 -2.0338 0.9745
-1.2205 -5.9955 -2.0338 0.9745
-0.6862 -6.0799 -2.0338 0.9745
-5.6820 -0.2466 -2.0338 0.9761
-5.4185 -1.7279 -2.0338 0.9761
-4.7758 -3.0883 -2.0338 0.9761
-2.9948 -4.8349 -2.0338 0.9761
-2.5562 -5.0805 -2.0338 0.9761
-2.0975 -5.2864 -2.0338 0.9761
-1.6223 -5.4511 -2.0338 0.9761
-1.1345 -5.5730 -2.0338 0.9761
-0.1362 -5.6857 -2.0338 0.9761
-5.3023 -0.2302 -2.0339 0.9775
-5.2613 -0.6976 -2.0338 0.9775
-5.1790 -1.1596 -2.0338 0.9775
-4.8942 -2.0528 -2.0338 0.9775
-4.6937 -2.4770 -2.0338 0.9775
-4.1846 -3.2642 -2.0338 0.9775
-3.8800 -3.6211 -2.0338 0.9775
-1.9573 -4.9332 -2.0338 0.9775
-1.5139 -5.0868 -2.0338 0.9775
-2.1084 -0.2796 -0.8705 0.9908
-4.7345 -1.5098 -2.0338 0.9788
-4.5826 -1.9221 -2.0338 0.9788
-4.3949 -2.3193 -2.0338 0.9788
-4.1729 -2.6984 -2.0338 0.9788
-3.6330 -3.3905 -2.0338 0.9788
-2.9797 -3.9769 -2.0338 0.9788
-2.6168 -4.2245 -2.0338 0.9788
-2.2334 -4.4391 -2.0338 0.9788
-1.8327 -4.6191 -2.0338 0.9788
-0.5573 -4.9380 -2.0338 0.9788
-0.1191 -4.9680 -2.0338 0.9788
-1.9184 -0.0833 -0.8369 0.9917
-1.9020 -0.2522 -0.8362 0.9917
-4.1273 -2.1780 -2.0338 0.9798
-3.9187 -2.5340 -2.0338 0.9798
-3.6796 -2.8703 -2.0338 0.9798
-3.4117 -3.1841 -2.0338 0.9798
-2.4575 -3.9673 -2.0338 0.9798
-2.0975 -4.1688 -2.0338 0.9798
-0.5234 -4.6373 -2.0338 0.9798
-0.1118 -4.6654 -2.0338 0.9798
-1.5895 -0.0690 -0.7365 0.9930
-1.6105 -0.2136 -0.7520 0.9929
-1.5900 -0.3560 -0.7542 0.9928
-1.6057 -0.5121 -0.7801 0.9926
-3.4645 -2.7024 -2.0338 0.9808
-2.9349 -3.2699 -2.0338 0.9808
-0.4928 -4.3661 -2.0338 0.9808
-0.1052 -4.3926 -2.0339 0.9808
-1.3479 -0.0586 -0.6618 0.9940
-1.3510 -0.1792 -0.6685 0.9939
-1.3269 -0.2971 -0.6670 0.9940
-3.6670 -1.9351 -2.0338 0.9817
-3.4817 -2.2515 -2.0338 0.9817
-3.2693 -2.5502 -2.0338 0.9817
-3.0312 -2.8290 -2.0338 0.9817
-2.7696 -3.0857 -2.0338 0.9817
-2.4862 -3.3182 -2.0338 0.9817
-0.8271 -4.0630 -2.0338 0.9817
-0.0993 -4.1451 -2.0339 0.9817
-1.1976 -0.1588 -0.6267 0.9946
-3.2921 -2.1288 -2.0338 0.9825
-2.8661 -2.6749 -2.0338 0.9825
-2.6187 -2.9176 -2.0338 0.9825
-2.0645 -3.3329 -2.0338 0.9825
-1.7620 -3.5022 -2.0338 0.9825
-1.4459 -3.6441 -2.0338 0.9825
-1.1184 -3.7576 -2.0338 0.9825
-0.7821 -3.8417 -2.0339 0.9825
-0.4397 -3.8957 -2.0339 0.9825
-0.0939 -3.9194 -2.0339 0.9825
-1.2049 -0.6359 -0.7462 0.9938
-3.1182 -2.0164 -2.0339 0.9832
-2.7148 -2.5336 -2.0338 0.9832
-1.3695 -3.4517 -2.0338 0.9832
-1.0593 -3.5591 -2.0339 0.9832
-0.0889 -3.7124 -2.0339 0.9832
-0.9900 -0.0430 -0.5721 0.9954
-0.9850 -0.1306 -0.5737 0.9954
-0.9701 -0.2172 -0.5740 0.9954
-0.9536 -0.3041 -0.5778 0.9954
-0.9336 -0.3916 -0.5845 0.9953
-2.5754 -2.4035 -2.0339 0.9839
-1.8551 -2.9947 -2.0339 0.9839
-1.5833 -3.1469 -2.0339 0.9839
-1.2992 -3.2744 -2.0339 0.9839
-0.7027 -3.4520 -2.0339 0.9839
-0.0844 -3.5218 -2.0339 0.9839
