ply
format ascii 1.0
element vertex 176
property float32 x
property float32 y
property float32 z
property float32 I
end_header
16.4406 -3.6706 -1.2351 0.9347
2.9676 -6.0652 -0.6482 0.9732
16.2218 -3.6217 -1.5957 0.9354
2.3249 -6.0764 -0.7728 0.9741
10.1461 -13.7918 -2.0338 0.9334
14.3402 -9.3563 -2.0339 0.9334
16.3107 -5.2116 -2.0340 0.9334
16.7118 -3.7311 -2.0340 0.9334
17.1096 -0.6923 -2.0340 0.9333
1.7293 -6.1098 -0.8997 0.9747
7.4371 -12.2773 -2.0338 0.9437
8.5061 -11.5625 -2.0338 0.9437
9.5067 -10.7550 -2.0339 0.9437
12.0222 -7.8439 -2.0339 0.9437
12.6760 -6.7366 -2.0339 0.9437
13.6741 -4.3692 -2.0340 0.9437
14.0103 -3.1280 -2.0340 0.9437
14.2342 -1.8617 -2.0340 0.9437
14.3383 0.7056 -2.0340 0.9437
14.2177 1.9859 -2.0340 0.9437
1.7587 -6.2140 -1.0639 0.9742
8.1766 -9.2502 -2.0339 0.9512
8.9716 -8.4814 -2.0339 0.9512
9.6948 -7.6446 -2.0339 0.9512
10.9024 -5.7940 -2.0339 0.9512
11.3772 -4.7952 -2.0339 0.9512
12.2425 -1.6012 -2.0340 0.9512
12.3367 -0.4992 -2.0340 0.9512
12.3320 0.6068 -2.0340 0.9512
12.2282 1.7080 -2.0340 0.9512
2.2791 -5.9565 -1.1987 0.9744
2.7675 -5.6563 -1.1836 0.9747
6.4121 -8.7162 -2.0339 0.9569
7.1664 -8.1074 -2.0339 0.9569
9.0626 -5.9129 -2.0339 0.9569
9.9716 -4.2028 -2.0339 0.9569
10.5612 -2.3579 -2.0340 0.9569
10.7299 -1.4034 -2.0340 0.9569
1.6912 -5.9754 -1.3127 0.9749
2.7577 -5.6362 -1.3263 0.9747
5.7017 -7.7505 -2.0339 0.9614
6.3725 -7.2092 -2.0339 0.9614
6.9921 -6.6101 -2.0339 0.9614
7.5556 -5.9578 -2.0339 0.9614
8.0586 -5.2578 -2.0339 0.9614
8.8668 -3.7371 -2.0339 0.9614
9.1657 -2.9286 -2.0339 0.9614
9.6145 -0.3890 -2.0340 0.9614
9.6109 0.4730 -2.0340 0.9614
9.5300 1.3311 -2.0340 0.9614
2.2100 -5.7763 -1.4535 0.9749
4.4837 -7.4018 -2.0339 0.9651
5.7314 -6.4840 -2.0339 0.9651
7.6420 -4.0613 -2.0339 0.9651
7.9748 -3.3612 -2.0339 0.9651
8.2437 -2.6340 -2.0339 0.9651
8.6473 -0.3499 -2.0340 0.9651
1.6751 -5.9183 -1.5925 0.9749
2.1769 -5.6895 -1.5773 0.9751
6.5789 -4.2925 -2.0339 0.9681
6.9367 -3.6865 -2.0339 0.9681
7.2388 -3.0510 -2.0339 0.9681
7.4829 -2.3909 -2.0339 0.9681
7.6668 -1.7117 -2.0339 0.9681
7.8493 -0.3176 -2.0340 0.9681
2.4771 -6.4743 -1.9624 0.9716
5.2209 -4.9356 -2.0339 0.9706
5.6416 -4.4486 -2.0339 0.9706
6.0171 -3.9259 -2.0339 0.9706
6.3443 -3.3717 -2.0339 0.9706
6.6207 -2.7904 -2.0339 0.9706
7.0121 -1.5655 -2.0339 0.9706
7.1157 0.9939 -2.0340 0.9706
2.3630 -6.1759 -2.0339 0.9727
3.4261 -5.6557 -2.0339 0.9727
3.9185 -5.3265 -2.0339 0.9727
4.3794 -4.9545 -2.0339 0.9727
4.8052 -4.5427 -2.0339 0.9727
5.5381 -3.6134 -2.0339 0.9727
5.8393 -3.1033 -2.0339 0.9727
6.6048 0.3250 -2.0340 0.9727
6.5493 0.9148 -2.0340 0.9727
1.6663 -5.8873 -2.0338 0.9745
2.1865 -5.7146 -2.0339 0.9745
3.1702 -5.2333 -2.0339 0.9745
4.0523 -4.5844 -2.0339 0.9745
4.8047 -3.7887 -2.0339 0.9745
5.9718 -1.3333 -2.0339 0.9745
6.0673 -0.7935 -2.0339 0.9745
6.1139 -0.2474 -2.0340 0.9745
6.1115 0.3007 -2.0340 0.9745
6.0601 0.8464 -2.0340 0.9745
1.5489 -5.4724 -2.0339 0.9761
2.0324 -5.3119 -2.0339 0.9761
2.4996 -5.1087 -2.0339 0.9761
3.3703 -4.5813 -2.0339 0.9761
3.7668 -4.2613 -2.0339 0.9761
4.4661 -3.5217 -2.0339 0.9761
4.7633 -3.1079 -2.0339 0.9761
5.2411 -2.2090 -2.0339 0.9761
5.5510 -1.2393 -2.0339 0.9761
5.6830 -0.2300 -2.0339 0.9761
5.6808 0.2796 -2.0340 0.9761
1.4454 -5.1067 -2.0339 0.9775
2.3325 -4.7673 -2.0339 0.9775
2.7498 -4.5394 -2.0339 0.9775
3.1451 -4.2752 -2.0339 0.9775
3.8568 -3.6461 -2.0339 0.9775
4.1676 -3.2863 -2.0339 0.9775
4.6868 -2.4908 -2.0339 0.9775
5.2627 -0.6883 -2.0339 0.9775
1.7758 -4.6413 -2.0339 0.9788
2.5747 -4.2504 -2.0339 0.9788
2.9448 -4.0030 -2.0339 0.9788
3.2912 -3.7234 -2.0339 0.9788
3.6112 -3.4139 -2.0339 0.9788
3.9023 -3.0771 -2.0339 0.9788
4.1620 -2.7155 -2.0339 0.9788
4.3884 -2.3322 -2.0339 0.9788
4.5795 -1.9301 -2.0339 0.9788
4.7338 -1.5126 -2.0339 0.9788
4.8502 -1.0829 -2.0339 0.9788
4.9276 -0.6445 -2.0339 0.9788
4.9656 -0.2010 -2.0339 0.9787
1.2709 -4.4904 -2.0339 0.9798
1.6676 -4.3587 -2.0339 0.9798
2.4179 -3.9916 -2.0339 0.9798
3.3913 -3.2060 -2.0339 0.9798
3.9086 -2.5502 -2.0339 0.9798
4.1211 -2.1902 -2.0339 0.9798
4.3006 -1.8126 -2.0339 0.9798
4.4455 -1.4204 -2.0339 0.9798
4.6275 -0.6052 -2.0339 0.9798
1.5702 -4.1038 -2.0339 0.9808
2.6037 -3.5394 -2.0339 0.9808
2.9100 -3.2921 -2.0339 0.9808
4.2885 -0.9574 -2.0339 0.9808
4.3570 -0.5698 -2.0339 0.9808
4.3905 -0.1777 -2.0339 0.9808
4.3888 0.2160 -2.0339 0.9808
4.3518 0.6078 -2.0339 0.9808
1.1292 -3.9896 -2.0339 0.9817
1.4817 -3.8726 -2.0339 0.9817
1.8223 -3.7244 -2.0339 0.9817
2.7461 -3.1067 -2.0339 0.9817
3.2559 -2.5674 -2.0339 0.9817
3.4726 -2.2658 -2.0339 0.9817
3.6614 -1.9459 -2.0339 0.9817
3.8209 -1.6104 -2.0339 0.9817
3.9497 -1.2621 -2.0339 0.9817
4.1114 -0.5377 -2.0339 0.9817
2.0313 -3.3532 -2.0339 0.9825
2.5965 -2.9375 -2.0339 0.9825
2.8490 -2.6933 -2.0339 0.9825
3.0786 -2.4276 -2.0339 0.9825
3.2835 -2.1423 -2.0339 0.9825
3.4620 -1.8399 -2.0339 0.9825
3.6128 -1.5227 -2.0339 0.9825
2.0939 0.2924 -1.0968 0.9905
1.3270 -3.4683 -2.0339 0.9832
1.9240 -3.1762 -2.0339 0.9832
2.4594 -2.7823 -2.0339 0.9832
2.9161 -2.2994 -2.0339 0.9832
3.2793 -1.7427 -2.0339 0.9832
3.4221 -1.4423 -2.0339 0.9832
1.8857 -0.6025 -1.0842 0.9910
1.8574 -0.4147 -1.0424 0.9914
1.8527 -0.0750 -1.0156 0.9916
1.8459 0.2578 -1.0208 0.9915
0.9593 -3.3896 -2.0339 0.9839
1.5482 -3.1643 -2.0339 0.9839
2.0876 -2.8377 -2.0339 0.9839
2.9504 -1.9250 -2.0339 0.9839
1.7216 -0.5501 -1.0435 0.9917
1.7149 -0.3829 -1.0145 0.9919
1.7150 -0.2243 -0.9986 0.9920
