ply
format ascii 1.0
element vertex 187
property float32 x
property float32 y
property float32 z
property float32 I
end_header
-12.0911 -8.1511 -0.7395 0.9433
-11.6259 -7.8375 -1.3461 0.9452
-17.1024 0.8027 -2.0338 0.9334
-17.1041 -0.7623 -2.0337 0.9334
-16.9629 -2.3209 -2.0337 0.9334
-16.6801 -3.8600 -2.0337 0.9334
-16.2578 -5.3669 -2.0337 0.9334
-15.6997 -6.8289 -2.0337 0.9334
-15.0105 -8.2339 -2.0337 0.9334
-11.5409 -7.7802 -1.6533 0.9455
-9.8342 -14.0141 -2.0337 0.9334
-8.5136 -14.8535 -2.0337 0.9334
-7.1217 -15.5689 -2.0337 0.9334
-4.1717 -16.6045 -2.0337 0.9334
-14.3395 -0.6391 -2.0338 0.9437
-14.2212 -1.9457 -2.0338 0.9437
-13.9840 -3.2361 -2.0337 0.9437
-13.6300 -4.4995 -2.0337 0.9437
-13.1621 -5.7252 -2.0337 0.9437
-12.5843 -6.9030 -2.0337 0.9437
-11.9015 -8.0232 -2.0337 0.9437
-10.2439 -10.0538 -2.0337 0.9437
-9.2831 -10.9471 -2.0337 0.9437
-8.2448 -11.7490 -2.0337 0.9437
-7.1375 -12.4527 -2.0337 0.9437
-3.4975 -13.9207 -2.0337 0.9437
-2.2117 -14.1820 -2.0337 0.9437
-12.3320 0.5788 -2.0338 0.9512
-11.3207 -4.9242 -2.0337 0.9512
-7.9843 -9.4155 -2.0337 0.9512
-6.1389 -10.7105 -2.0337 0.9512
-5.1353 -11.2264 -2.0337 0.9512
-4.0888 -11.6484 -2.0337 0.9512
-1.9023 -12.1978 -2.0337 0.9512
-10.7204 -1.4668 -2.0338 0.9569
-10.2749 -3.3918 -2.0338 0.9569
-7.7223 -7.5789 -2.0337 0.9569
-6.2152 -8.8569 -2.0337 0.9569
-5.3805 -9.3874 -2.0337 0.9569
-9.5327 -1.3043 -2.0338 0.9614
-8.8229 -3.8377 -2.0338 0.9614
-7.9779 -5.3782 -2.0338 0.9614
-6.2227 -7.3382 -2.0338 0.9614
-5.5266 -7.8757 -2.0338 0.9614
-3.1866 -9.0783 -2.0338 0.9614
-2.3445 -9.3314 -2.0338 0.9614
-1.4826 -9.5065 -2.0338 0.9614
-8.6451 -0.3853 -2.0338 0.9651
-8.2174 -2.7127 -2.0338 0.9651
-7.9354 -3.4517 -2.0338 0.9651
-7.5871 -4.1618 -2.0338 0.9651
-6.7037 -5.4721 -2.0338 0.9651
-5.5968 -6.6000 -2.0338 0.9651
-4.9707 -7.0835 -2.0338 0.9651
-3.5997 -7.8693 -2.0338 0.9651
-2.8661 -8.1651 -2.0338 0.9651
-1.3334 -8.5503 -2.0338 0.9651
-7.8465 0.3682 -2.0338 0.9681
-7.8473 -0.3497 -2.0338 0.9681
-7.7825 -1.0648 -2.0338 0.9681
-7.6528 -1.7710 -2.0338 0.9681
-7.4591 -2.4624 -2.0338 0.9681
-6.5132 -4.3908 -2.0338 0.9681
-6.0850 -4.9672 -2.0338 0.9681
-5.6061 -5.5021 -2.0338 0.9681
-3.9061 -6.8149 -2.0338 0.9681
-3.2675 -7.1431 -2.0338 0.9681
-2.6016 -7.4117 -2.0338 0.9681
-7.1180 -0.9739 -2.0338 0.9706
-5.9570 -4.0159 -2.0338 0.9706
-5.5654 -4.5430 -2.0338 0.9706
-5.1273 -5.0322 -2.0338 0.9706
-4.6465 -5.4794 -2.0338 0.9706
-3.5725 -6.2330 -2.0338 0.9706
-2.9885 -6.5332 -2.0338 0.9706
-1.1070 -7.0985 -2.0338 0.9706
-6.6059 -0.2944 -2.0338 0.9727
-6.5514 -0.8964 -2.0338 0.9727
-6.4421 -1.4908 -2.0338 0.9727
-5.1224 -4.1814 -2.0338 0.9727
-4.7192 -4.6316 -2.0338 0.9727
-4.2766 -5.0432 -2.0338 0.9727
-2.1901 -6.2391 -2.0338 0.9727
-1.6112 -6.4130 -2.0338 0.9727
-1.0189 -6.5334 -2.0338 0.9727
-6.1118 0.2868 -2.0339 0.9745
-6.0621 -0.8294 -2.0338 0.9745
-5.9610 -1.3795 -2.0338 0.9745
-5.8101 -1.9180 -2.0338 0.9745
-5.0733 -3.4201 -2.0338 0.9745
-4.3668 -4.2857 -2.0338 0.9745
-3.0426 -5.3083 -2.0338 0.9745
-2.5452 -5.5640 -2.0338 0.9745
-1.4909 -5.9341 -2.0338 0.9745
-0.9428 -6.0454 -2.0338 0.9745
-5.6811 0.2666 -2.0339 0.9761
-5.6817 -0.2532 -2.0338 0.9761
-5.6349 -0.7710 -2.0338 0.9761
-5.4006 -1.7828 -2.0338 0.9761
-4.7158 -3.1791 -2.0338 0.9761
-4.4058 -3.5964 -2.0338 0.9761
-4.0590 -3.9837 -2.0338 0.9761
-3.2669 -4.6554 -2.0338 0.9761
-1.8837 -5.3663 -2.0338 0.9761
-1.3858 -5.5159 -2.0338 0.9761
-5.3014 0.2488 -2.0339 0.9775
-5.3020 -0.2363 -2.0339 0.9775
-5.2582 -0.7194 -2.0338 0.9775
-5.1706 -1.1966 -2.0338 0.9775
-4.8668 -2.1170 -2.0338 0.9775
-4.1114 -3.3561 -2.0338 0.9775
-3.7878 -3.7175 -2.0338 0.9775
-3.4325 -4.0478 -2.0338 0.9775
-3.0486 -4.3443 -2.0338 0.9775
-2.6392 -4.6045 -2.0338 0.9775
-2.2077 -4.8263 -2.0338 0.9775
-1.2932 -5.1473 -2.0338 0.9775
-0.8178 -5.2439 -2.0338 0.9775
-2.1192 -0.4904 -0.8903 0.9906
-4.5569 -1.9821 -2.0338 0.9788
-4.1205 -2.7778 -2.0338 0.9788
-3.8496 -3.1424 -2.0338 0.9788
-3.2140 -3.7901 -2.0338 0.9788
-2.8545 -4.0677 -2.0338 0.9788
-1.6459 -4.6889 -2.0338 0.9788
-1.2109 -4.8196 -2.0338 0.9788
-0.7658 -4.9100 -2.0338 0.9788
-1.9184 -0.0855 -0.8369 0.9917
-1.9021 -0.2603 -0.8367 0.9917
-4.4315 -1.4629 -2.0338 0.9798
-4.0916 -2.2444 -2.0338 0.9798
-3.8696 -2.6086 -2.0338 0.9798
-3.3306 -3.2688 -2.0338 0.9798
-1.9412 -4.2438 -2.0338 0.9798
-1.5457 -4.4034 -2.0338 0.9798
-1.1371 -4.5261 -2.0338 0.9798
-1.5900 -0.0709 -0.7367 0.9930
-1.5861 -0.3671 -0.7536 0.9928
-1.6396 -0.5413 -0.7993 0.9924
-4.0292 -1.7526 -2.0338 0.9808
-3.6432 -2.4561 -2.0338 0.9808
-3.4038 -2.7785 -2.0338 0.9808
-2.8418 -3.3512 -2.0338 0.9808
-2.5239 -3.5967 -2.0338 0.9808
-2.1850 -3.8121 -2.0338 0.9808
-0.6771 -4.3414 -2.0338 0.9808
-1.3486 0.0633 -0.6623 0.9940
-1.3481 -0.0601 -0.6619 0.9940
-1.3243 -0.3065 -0.6667 0.9940
-1.2816 -0.4231 -0.6620 0.9940
-3.8021 -1.6538 -2.0338 0.9817
-3.6353 -1.9941 -2.0338 0.9817
-2.9591 -2.9043 -2.0338 0.9817
-2.6816 -3.1623 -2.0338 0.9817
-2.3817 -3.3940 -2.0338 0.9817
-2.0619 -3.5973 -2.0338 0.9817
-1.7248 -3.7705 -2.0338 0.9817
-1.3733 -3.9123 -2.0338 0.9817
-1.0103 -4.0213 -2.0338 0.9817
-0.6389 -4.0968 -2.0338 0.9817
-1.1986 0.0562 -0.6225 0.9946
-1.1984 -0.0534 -0.6223 0.9946
-1.1968 -0.1638 -0.6267 0.9946
-3.4372 -1.8855 -2.0338 0.9825
-3.2507 -2.1915 -2.0338 0.9825
-2.7980 -2.7461 -2.0338 0.9825
-2.5356 -2.9901 -2.0338 0.9825
-1.6309 -3.5652 -2.0338 0.9825
-0.6041 -3.8737 -2.0339 0.9825
-1.0810 -0.0482 -0.5926 0.9951
-1.0744 -0.1470 -0.5939 0.9951
-1.0502 -0.2431 -0.5904 0.9951
-3.2557 -1.7859 -2.0339 0.9832
-2.6502 -2.6011 -2.0338 0.9832
-2.4017 -2.8322 -2.0338 0.9832
-2.1330 -3.0397 -2.0338 0.9832
-1.5447 -3.3769 -2.0338 0.9832
-1.2299 -3.5038 -2.0339 0.9832
-0.9048 -3.6015 -2.0339 0.9832
-0.5723 -3.6691 -2.0339 0.9832
-0.9846 -0.1347 -0.5737 0.9954
-0.9297 -0.4044 -0.5853 0.9953
-0.8991 -0.4932 -0.5921 0.9953
-2.9210 -1.9692 -2.0339 0.9839
-2.7289 -2.2276 -2.0339 0.9839
-2.0235 -2.8836 -2.0339 0.9839
-1.4654 -3.2035 -2.0339 0.9839
