ply
format ascii 1.0
element vertex 190
property float32 x
property float32 y
property float32 z
property float32 I
end_header
-12.0157 -8.0233 -0.7327 0.9438
-11.9259 -7.9634 -1.0515 0.9441
-16.3084 5.1459 -1.6418 0.9336
-11.6766 -7.7969 -1.3479 0.9451
-16.3281 5.1522 -2.0338 0.9334
-16.7229 3.6731 -2.0338 0.9334
-17.0978 -0.8917 -2.0337 0.9334
-16.6661 -3.9196 -2.0337 0.9334
-15.0304 -8.1975 -2.0337 0.9334
-12.3192 -11.8888 -2.0337 0.9334
-11.2080 -12.9416 -2.0337 0.9334
-10.0073 -13.8910 -2.0337 0.9334
-8.7266 -14.7293 -2.0337 0.9334
-14.3438 0.5357 -2.0338 0.9437
-14.2100 -2.0249 -2.0338 0.9437
-13.9723 -3.2861 -2.0337 0.9437
-13.6230 -4.5209 -2.0337 0.9437
-13.1646 -5.7196 -2.0337 0.9437
-12.6011 -6.8726 -2.0337 0.9437
-11.9368 -7.9706 -2.0337 0.9437
-11.1771 -9.0049 -2.0337 0.9437
-10.3281 -9.9672 -2.0337 0.9437
-9.3966 -10.8499 -2.0337 0.9437
-8.3898 -11.6458 -2.0337 0.9437
-6.1839 -12.9528 -2.0337 0.9437
-12.2466 1.5609 -2.0338 0.9512
-12.3370 0.4608 -2.0338 0.9512
-12.3287 -0.6430 -2.0338 0.9512
-11.3228 -4.9194 -2.0337 0.9512
-9.6134 -7.7451 -2.0337 0.9512
-8.8831 -8.5728 -2.0337 0.9512
-8.0819 -9.3320 -2.0337 0.9512
-10.7336 1.3680 -2.0338 0.9569
-10.8057 -0.5636 -2.0338 0.9569
-10.7121 -1.5265 -2.0338 0.9569
-9.4991 -5.1808 -2.0338 0.9569
-8.4257 -6.7883 -2.0338 0.9569
-7.0835 -8.1791 -2.0337 0.9569
-5.5152 -9.3089 -2.0337 0.9569
-9.5445 1.2165 -2.0338 0.9614
-9.3660 -2.2027 -2.0338 0.9614
-8.8246 -3.8340 -2.0338 0.9614
-8.4468 -4.6069 -2.0338 0.9614
-7.4923 -6.0363 -2.0338 0.9614
-6.9232 -6.6813 -2.0338 0.9614
-6.2988 -7.2730 -2.0338 0.9614
-4.9042 -8.2777 -2.0338 0.9614
-8.4523 1.8565 -2.0338 0.9651
-8.5843 1.0941 -2.0338 0.9651
-8.6420 -0.4507 -2.0338 0.9651
-8.5671 -1.2208 -2.0338 0.9651
-8.4238 -1.9812 -2.0338 0.9651
-7.9369 -3.4483 -2.0338 0.9651
-7.5971 -4.1435 -2.0338 0.9651
-6.2268 -6.0092 -2.0338 0.9651
-5.6652 -6.5414 -2.0338 0.9651
-5.0582 -7.0212 -2.0338 0.9651
-3.7282 -7.8092 -2.0338 0.9651
-7.4911 2.3637 -2.0339 0.9681
-7.7765 -1.1082 -2.0338 0.9681
-7.4552 -2.4741 -2.0338 0.9681
-7.2045 -3.1301 -2.0338 0.9681
-6.5325 -4.3620 -2.0338 0.9681
-5.6522 -5.4547 -2.0338 0.9681
-4.5914 -6.3733 -2.0338 0.9681
-4.0038 -6.7579 -2.0338 0.9681
-7.0171 1.5413 -2.0339 0.9706
-7.1793 0.2681 -2.0338 0.9706
-7.1746 -0.3742 -2.0338 0.9706
-6.8186 -2.2629 -2.0338 0.9706
-6.3071 -3.4399 -2.0338 0.9706
-5.1695 -4.9889 -2.0338 0.9706
-4.7032 -5.4307 -2.0338 0.9706
-4.1994 -5.8291 -2.0338 0.9706
-6.3061 1.9898 -2.0339 0.9727
-6.5594 0.8360 -2.0339 0.9727
-6.6034 -0.3444 -2.0338 0.9727
-6.4368 -1.5138 -2.0338 0.9727
-6.2758 -2.0827 -2.0338 0.9727
-4.7580 -4.5918 -2.0338 0.9727
-3.3705 -5.6889 -2.0338 0.9727
-2.8488 -5.9671 -2.0338 0.9727
-5.8350 1.8412 -2.0339 0.9745
-6.1143 0.2283 -2.0339 0.9745
-6.1103 -0.3187 -2.0338 0.9745
-6.0573 -0.8632 -2.0338 0.9745
-5.9560 -1.4008 -2.0338 0.9745
-5.8071 -1.9271 -2.0338 0.9745
-5.0884 -3.3977 -2.0338 0.9745
-4.4027 -4.2488 -2.0338 0.9745
-3.5764 -4.9644 -2.0338 0.9745
-5.4239 1.7114 -2.0339 0.9761
-5.5550 1.2201 -2.0339 0.9761
-5.6418 0.7191 -2.0339 0.9761
-5.6796 -0.2962 -2.0338 0.9761
-5.6305 -0.8024 -2.0338 0.9761
-5.5363 -1.3021 -2.0338 0.9761
-5.2163 -2.2663 -2.0338 0.9761
-3.3244 -4.6145 -2.0338 0.9761
-2.8989 -4.8930 -2.0338 0.9761
-2.4503 -5.1324 -2.0338 0.9761
-5.1838 1.1386 -2.0339 0.9775
-5.2647 0.6710 -2.0339 0.9775
-5.3036 0.1981 -2.0339 0.9775
-4.8677 -2.1149 -2.0338 0.9775
-4.6593 -2.5412 -2.0338 0.9775
-4.4137 -2.9472 -2.0338 0.9775
-4.1328 -3.3296 -2.0338 0.9775
-3.8189 -3.6855 -2.0338 0.9775
-3.1023 -4.3062 -2.0338 0.9775
-2.2866 -4.7894 -2.0338 0.9775
-4.7391 1.4954 -2.0339 0.9788
-2.1206 0.4657 -0.8886 0.9907
-2.1113 -0.3009 -0.8728 0.9908
-2.1222 -0.4991 -0.8923 0.9906
-4.7164 -1.5652 -2.0338 0.9788
-4.5578 -1.9802 -2.0338 0.9788
-4.1327 -2.7596 -2.0338 0.9788
-2.5330 -4.2753 -2.0338 0.9788
-2.1410 -4.4845 -2.0338 0.9788
-2.1050 0.6642 -0.9620 0.9904
-1.9028 0.4179 -0.8490 0.9915
-1.9036 0.2426 -0.8363 0.9917
-1.9187 0.0716 -0.8368 0.9917
-1.9179 -0.1001 -0.8370 0.9917
-1.9032 -0.2712 -0.8378 0.9916
-4.4292 -1.4699 -2.0338 0.9798
-4.2802 -1.8596 -2.0338 0.9798
-4.0970 -2.2345 -2.0338 0.9798
-3.6341 -2.9278 -2.0338 0.9798
-3.3580 -3.2407 -2.0338 0.9798
-3.0552 -3.5277 -2.0338 0.9798
-2.3787 -4.0150 -2.0338 0.9798
-2.0106 -4.2114 -2.0338 0.9798
-1.5866 0.0592 -0.7349 0.9930
-1.5841 -0.3726 -0.7533 0.9929
-1.6508 -0.5479 -0.8051 0.9924
-3.8574 -2.1038 -2.0338 0.9808
-3.6541 -2.4400 -2.0338 0.9808
-3.4215 -2.7566 -2.0338 0.9808
-3.1616 -3.0512 -2.0338 0.9808
-2.8765 -3.3214 -2.0338 0.9808
-2.5684 -3.5650 -2.0338 0.9808
-1.8930 -3.9652 -2.0338 0.9808
-1.3466 0.0503 -0.6610 0.9940
-1.3496 -0.0704 -0.6629 0.9940
-1.3495 -0.1923 -0.6686 0.9939
-1.3229 -0.3112 -0.6666 0.9940
-1.2806 -0.4250 -0.6619 0.9940
-3.8029 -1.6522 -2.0338 0.9817
-3.6400 -1.9853 -2.0338 0.9817
-3.4482 -2.3025 -2.0338 0.9817
-3.2287 -2.6013 -2.0338 0.9817
-2.7144 -3.1342 -2.0338 0.9817
-2.1135 -3.5672 -2.0338 0.9817
-1.7863 -3.7417 -2.0338 0.9817
-1.1427 0.3605 -0.6216 0.9946
-1.1985 0.1527 -0.6268 0.9946
-1.1976 0.0447 -0.6217 0.9946
-1.1391 -0.3781 -0.6226 0.9946
-3.4418 -1.8772 -2.0338 0.9825
-2.5666 -2.9636 -2.0338 0.9825
-2.2916 -3.1810 -2.0338 0.9825
-1.9983 -3.3729 -2.0338 0.9825
-1.6891 -3.5380 -2.0338 0.9825
-1.0541 0.2315 -0.5911 0.9951
-1.0759 0.1371 -0.5940 0.9951
-1.0804 0.0403 -0.5921 0.9951
-1.0814 -0.0564 -0.5931 0.9951
-1.0734 -0.1530 -0.5938 0.9951
-1.0489 -0.2467 -0.5902 0.9951
-1.0024 -0.4355 -0.5986 0.9950
-3.2600 -1.7780 -2.0339 0.9832
-2.6720 -2.5787 -2.0338 0.9832
-2.4310 -2.8071 -2.0338 0.9832
-1.8928 -3.1948 -2.0338 0.9832
-1.5999 -3.3511 -2.0338 0.9832
-0.9540 0.3010 -0.5776 0.9954
-0.9710 0.2132 -0.5740 0.9954
-0.9856 0.1256 -0.5736 0.9954
-0.9900 0.0369 -0.5720 0.9954
-0.9900 -0.0517 -0.5724 0.9954
-0.9839 -0.1402 -0.5738 0.9954
-0.9674 -0.2276 -0.5738 0.9954
-0.9515 -0.3158 -0.5788 0.9954
-2.9296 -1.9562 -2.0339 0.9839
-2.5348 -2.4463 -2.0339 0.9839
-2.3062 -2.6629 -2.0339 0.9839
-2.0591 -2.8583 -2.0339 0.9839
-1.7956 -3.0308 -2.0339 0.9839
