ply
format ascii 1.0
element vertex 177
property float32 x
property float32 y
property float32 z
property float32 I
end_header
16.5767 -3.6989 -0.8613 0.9342
2.3500 -6.4410 -0.8144 0.9728
2.7777 -5.8869 -0.7732 0.9741
8.6839 -14.7561 -2.0338 0.9334
9.9895 -13.9056 -2.0338 0.9334
12.3426 -11.8672 -2.0339 0.9334
14.2877 -9.4364 -2.0339 0.9334
15.0866 -8.0984 -2.0339 0.9334
16.7122 -3.7291 -2.0340 0.9334
16.9823 -2.1944 -2.0340 0.9333
17.1116 -0.6414 -2.0340 0.9333
17.0992 0.9169 -2.0341 0.9333
16.6507 3.9980 -2.0341 0.9333
7.2803 -12.3710 -2.0338 0.9437
8.3748 -11.6580 -2.0338 0.9437
10.3475 -9.9490 -2.0339 0.9437
11.2092 -8.9671 -2.0339 0.9437
13.6684 -4.3871 -2.0340 0.9437
14.2371 -1.8396 -2.0340 0.9437
14.3350 0.7687 -2.0340 0.9437
14.2059 2.0687 -2.0340 0.9437
13.9590 3.3517 -2.0341 0.9437
6.2616 -10.6401 -2.0338 0.9512
7.2030 -10.0268 -2.0338 0.9512
10.8782 -5.8394 -2.0339 0.9512
11.7559 -3.7732 -2.0340 0.9512
12.2449 -1.5822 -2.0340 0.9512
12.3382 -0.4625 -2.0340 0.9512
12.3292 0.6611 -2.0340 0.9512
12.2181 1.7793 -2.0340 0.9512
3.4655 -5.8887 -1.2843 0.9726
7.0860 -8.1778 -2.0339 0.9569
7.8002 -7.4998 -2.0339 0.9569
8.4498 -6.7596 -2.0339 0.9569
10.3034 -3.3071 -2.0340 0.9569
10.7321 -1.3867 -2.0340 0.9569
2.1240 -5.8217 -1.3099 0.9750
3.4642 -5.8865 -1.4438 0.9725
7.5136 -6.0107 -2.0339 0.9614
8.0289 -5.3028 -2.0339 0.9614
8.4778 -4.5510 -2.0339 0.9614
9.3914 -2.0956 -2.0340 0.9614
9.6086 0.5153 -2.0340 0.9614
2.7198 -5.7640 -1.4979 0.9742
6.2383 -5.9980 -2.0339 0.9651
7.6250 -4.0931 -2.0339 0.9651
7.9655 -3.3830 -2.0339 0.9651
8.4466 -1.8847 -2.0340 0.9651
8.5830 -1.1090 -2.0340 0.9651
8.6483 -0.3242 -2.0340 0.9651
8.6420 0.4634 -2.0340 0.9651
8.5641 1.2472 -2.0340 0.9651
2.1500 -5.8927 -1.6241 0.9744
2.6549 -5.6266 -1.6109 0.9746
7.4797 -2.4007 -2.0339 0.9681
7.6670 -1.7108 -2.0339 0.9681
7.8502 -0.2943 -2.0340 0.9681
7.8444 0.4206 -2.0340 0.9681
7.6386 1.8341 -2.0340 0.9681
2.1764 -5.9652 -1.7976 0.9739
4.1917 -5.8349 -2.0339 0.9706
4.7048 -5.4297 -2.0339 0.9706
5.1790 -4.9796 -2.0339 0.9706
5.9951 -3.9595 -2.0339 0.9706
7.1745 0.3847 -2.0340 0.9706
6.9863 1.6774 -2.0340 0.9706
2.2664 -6.2120 -2.0339 0.9727
3.3538 -5.6989 -2.0339 0.9727
4.3303 -4.9975 -2.0339 0.9727
4.7667 -4.5831 -2.0339 0.9727
5.1636 -4.1308 -2.0339 0.9727
5.8263 -3.1276 -2.0339 0.9727
6.4541 -1.4402 -2.0339 0.9727
6.5583 -0.8474 -2.0339 0.9727
6.5438 0.9529 -2.0340 0.9727
6.4301 1.5439 -2.0340 0.9727
2.6110 -5.5336 -2.0339 0.9745
3.1033 -5.2733 -2.0339 0.9745
3.5698 -4.9693 -2.0339 0.9745
4.4107 -4.2408 -2.0339 0.9745
4.7780 -3.8223 -2.0339 0.9745
5.1057 -3.3721 -2.0339 0.9745
5.3911 -2.8940 -2.0339 0.9745
5.6320 -2.3919 -2.0339 0.9745
5.9720 -1.3326 -2.0339 0.9745
6.1146 -0.2292 -2.0340 0.9745
6.1101 0.3276 -2.0340 0.9745
6.0550 0.8818 -2.0340 0.9745
5.9498 1.4286 -2.0340 0.9745
3.3183 -4.6191 -2.0339 0.9761
3.7245 -4.2983 -2.0339 0.9761
4.0998 -3.9420 -2.0339 0.9761
4.4412 -3.5529 -2.0339 0.9761
4.7459 -3.1345 -2.0339 0.9761
5.2350 -2.2233 -2.0339 0.9761
5.4155 -1.7382 -2.0339 0.9761
5.5511 -1.2387 -2.0339 0.9761
5.6837 -0.2131 -2.0339 0.9761
5.6283 0.8196 -2.0340 0.9761
3.4755 -4.0111 -2.0339 0.9775
3.8259 -3.6785 -2.0339 0.9775
4.1444 -3.3155 -2.0339 0.9775
4.8852 -2.0747 -2.0339 0.9775
5.0536 -1.6221 -2.0339 0.9775
5.1801 -1.1559 -2.0339 0.9775
5.2638 -0.6802 -2.0339 0.9775
5.3000 0.2842 -2.0339 0.9775
5.2521 0.7648 -2.0340 0.9775
5.1609 1.2392 -2.0340 0.9775
2.1206 -4.4943 -2.0339 0.9788
2.5205 -4.2829 -2.0339 0.9788
3.2543 -3.7557 -2.0339 0.9788
3.5823 -3.4443 -2.0339 0.9788
3.8805 -3.1044 -2.0339 0.9788
4.1468 -2.7388 -2.0339 0.9788
4.3786 -2.3504 -2.0339 0.9788
4.7318 -1.5188 -2.0339 0.9788
4.9286 -0.6369 -2.0339 0.9788
4.9661 -0.1862 -2.0339 0.9788
4.9625 0.2661 -2.0339 0.9787
4.9178 0.7161 -2.0340 0.9787
1.5996 -4.3841 -2.0339 0.9798
1.9915 -4.2206 -2.0339 0.9798
2.7228 -3.7902 -2.0339 0.9798
3.0561 -3.5270 -2.0339 0.9798
3.3641 -3.2345 -2.0339 0.9798
3.8943 -2.5720 -2.0339 0.9798
4.1119 -2.2073 -2.0339 0.9798
4.2956 -1.8244 -2.0339 0.9798
4.5549 -1.0164 -2.0339 0.9798
4.6637 -0.1748 -2.0339 0.9798
4.6603 0.2499 -2.0339 0.9798
4.6183 0.6725 -2.0339 0.9798
4.5380 1.0896 -2.0340 0.9798
1.8750 -3.9738 -2.0339 0.9808
2.2285 -3.7868 -2.0339 0.9808
3.1674 -3.0454 -2.0339 0.9808
3.4312 -2.7448 -2.0339 0.9808
3.6665 -2.4216 -2.0339 0.9808
4.1838 -1.3429 -2.0339 0.9808
4.3482 0.6332 -2.0339 0.9808
1.7694 -3.7498 -2.0339 0.9817
2.1029 -3.5735 -2.0339 0.9817
2.4191 -3.3675 -2.0339 0.9817
2.7152 -3.1337 -2.0339 0.9817
3.2379 -2.5902 -2.0339 0.9817
3.9481 -1.2672 -2.0339 0.9817
4.0469 -0.9030 -2.0339 0.9817
4.1436 -0.1553 -2.0339 0.9817
4.1032 0.5975 -2.0339 0.9817
4.0319 0.9681 -2.0339 0.9817
1.6730 -3.5456 -2.0339 0.9825
1.9884 -3.3788 -2.0339 0.9825
2.5674 -2.9630 -2.0339 0.9825
2.8262 -2.7173 -2.0339 0.9825
3.4543 -1.8543 -2.0339 0.9825
3.6086 -1.5326 -2.0339 0.9825
2.0898 -0.2701 -1.0932 0.9905
2.0959 0.3052 -1.0988 0.9905
3.8123 0.9154 -2.0339 0.9825
1.8834 -3.2004 -2.0339 0.9832
2.1666 -3.0159 -2.0339 0.9832
2.6769 -2.5738 -2.0339 0.9832
2.8998 -2.3198 -2.0339 0.9832
3.4181 -1.4517 -2.0339 0.9832
1.8527 -0.0695 -1.0154 0.9916
1.8527 0.0993 -1.0162 0.9916
1.8473 0.2690 -1.0224 0.9915
1.8575 0.4460 -1.0463 0.9913
1.2074 -3.3094 -2.0339 0.9839
1.5033 -3.1859 -2.0339 0.9839
1.7867 -3.0361 -2.0339 0.9839
2.3070 -2.6624 -2.0339 0.9839
2.7509 -2.2007 -2.0339 0.9839
3.1039 -1.6662 -2.0339 0.9839
1.7153 -0.2217 -0.9986 0.9920
1.7137 0.2495 -0.9998 0.9920
