ply
format ascii 1.0
element vertex 183
property float32 x
property float32 y
property float32 z
property float32 I
end_header
2.6231 18.8428 3.3545 0.9256
2.5382 18.2340 2.3973 0.9284
0.9152 18.6007 2.4251 0.9276
2.4392 17.5221 1.8997 0.9313
2.5838 18.5609 1.5864 0.9275
2.4099 17.3121 1.0839 0.9323
2.5361 18.2183 0.7253 0.9290
2.6301 18.8935 -0.5371 0.9265
13.4725 9.8256 -1.2226 0.9353
13.1562 9.5950 -1.5633 0.9367
16.0102 6.0753 -2.0341 0.9333
15.4058 7.4766 -2.0341 0.9333
13.2525 9.6652 -1.9484 0.9361
12.8823 11.2823 -2.0341 0.9333
10.6772 13.3882 -2.0341 0.9333
9.4428 14.2856 -2.0341 0.9333
8.1334 15.0696 -2.0341 0.9333
6.7594 15.7338 -2.0341 0.9333
5.3318 16.2731 -2.0341 0.9333
3.8617 16.6832 -2.0341 0.9333
-0.6845 17.1103 -2.0341 0.9333
-0.9800 7.5470 -0.9040 0.9698
13.8221 3.8780 -2.0341 0.9437
13.4220 5.0932 -2.0341 0.9437
12.9153 6.2679 -2.0341 0.9437
7.9162 11.9762 -2.0341 0.9437
6.8185 12.6335 -2.0341 0.9437
5.6667 13.1903 -2.0341 0.9437
3.2375 13.9861 -2.0341 0.9437
-0.5737 14.3443 -2.0341 0.9437
-0.9662 7.4404 -1.0631 0.9701
11.8880 3.3353 -2.0340 0.9512
11.5439 4.3805 -2.0340 0.9512
11.1081 5.3909 -2.0341 0.9512
9.9759 7.2756 -2.0341 0.9512
9.2886 8.1349 -2.0341 0.9512
8.5275 8.9296 -2.0341 0.9512
6.8086 10.3004 -2.0341 0.9512
5.8645 10.8656 -2.0341 0.9512
2.7845 12.0291 -2.0341 0.9512
1.7024 12.2292 -2.0341 0.9512
0.6069 12.3321 -2.0340 0.9512
10.4192 2.9232 -2.0340 0.9569
9.2763 5.5729 -2.0340 0.9569
8.7434 6.3767 -2.0340 0.9569
8.1409 7.1298 -2.0340 0.9569
7.4738 7.8262 -2.0341 0.9569
5.1398 9.5231 -2.0341 0.9569
4.2716 9.9429 -2.0340 0.9569
3.3693 10.2837 -2.0340 0.9569
2.4404 10.5429 -2.0340 0.9569
0.5319 10.8084 -2.0340 0.9569
-0.9416 7.2511 -1.3744 0.9707
9.2648 2.5994 -2.0340 0.9614
8.6570 4.2013 -2.0340 0.9614
8.2485 4.9554 -2.0340 0.9614
5.9997 7.5231 -2.0340 0.9614
5.3061 8.0275 -2.0340 0.9614
4.5704 8.4680 -2.0340 0.9614
2.9961 9.1443 -2.0340 0.9614
-0.9384 7.2265 -1.5404 0.9706
8.3328 2.3378 -2.0340 0.9651
6.9925 5.0997 -2.0340 0.9651
6.5107 5.7020 -2.0340 0.9651
4.7723 7.2199 -2.0340 0.9651
-0.3459 8.6475 -2.0340 0.9651
-0.9398 7.2374 -1.7153 0.9705
7.5637 2.1221 -2.0340 0.9681
7.3447 2.7871 -2.0340 0.9681
7.0675 3.4299 -2.0340 0.9681
5.4255 5.6813 -2.0340 0.9681
4.8982 6.1418 -2.0340 0.9681
3.7312 6.9132 -2.0340 0.9681
2.4459 7.4653 -2.0340 0.9681
1.7716 7.6534 -2.0340 0.9681
1.0831 7.7807 -2.0340 0.9681
0.3861 7.8463 -2.0340 0.9681
-0.9581 7.3780 -1.9263 0.9697
5.8051 4.2337 -2.0340 0.9706
4.4798 5.6173 -2.0340 0.9706
3.4125 6.3228 -2.0340 0.9706
1.6203 6.9998 -2.0340 0.9706
0.9907 7.1163 -2.0340 0.9706
-0.2872 7.1791 -2.0340 0.9706
-0.9252 7.1250 -2.0340 0.9706
6.3670 1.7863 -2.0340 0.9727
6.1827 2.3461 -2.0340 0.9727
5.9493 2.8872 -2.0340 0.9727
5.6686 3.4055 -2.0340 0.9727
4.9748 4.3569 -2.0340 0.9727
4.5671 4.7825 -2.0340 0.9727
3.6465 5.5167 -2.0340 0.9727
1.4913 6.4426 -2.0340 0.9727
0.9118 6.5497 -2.0340 0.9727
0.3250 6.6049 -2.0340 0.9727
5.7209 2.1709 -2.0340 0.9745
5.5050 2.6716 -2.0340 0.9745
5.2452 3.1511 -2.0340 0.9745
4.6032 4.0314 -2.0340 0.9745
3.8152 4.7840 -2.0340 0.9745
3.3741 5.1046 -2.0340 0.9745
1.9052 5.8148 -2.0340 0.9745
-0.7880 6.0680 -2.0340 0.9745
5.4763 1.5364 -2.0340 0.9761
4.8755 2.9290 -2.0340 0.9761
4.2788 3.7473 -2.0340 0.9761
2.7014 5.0053 -2.0340 0.9761
0.7842 5.6334 -2.0340 0.9761
-0.7324 5.6403 -2.0340 0.9761
4.5497 2.7333 -2.0340 0.9775
4.2883 3.1275 -2.0340 0.9775
3.3093 4.1496 -2.0340 0.9775
2.9268 4.4278 -2.0340 0.9775
2.5209 4.6707 -2.0340 0.9775
1.6526 5.0438 -2.0340 0.9775
0.2609 5.3012 -2.0340 0.9775
-0.2122 5.3033 -2.0340 0.9775
4.7850 1.3424 -2.0340 0.9787
4.2600 2.5592 -2.0340 0.9787
3.4323 3.5941 -2.0340 0.9787
2.7404 4.1459 -2.0340 0.9787
1.5473 4.7226 -2.0340 0.9787
1.1207 4.8417 -2.0340 0.9787
0.6852 4.9222 -2.0340 0.9787
0.2443 4.9637 -2.0340 0.9787
-0.1986 4.9657 -2.0340 0.9787
4.1987 2.0376 -2.0340 0.9798
3.7707 2.7500 -2.0340 0.9798
3.2232 3.3752 -2.0340 0.9798
2.9099 3.6487 -2.0340 0.9798
2.5735 3.8934 -2.0340 0.9798
1.0525 4.5468 -2.0340 0.9798
0.6435 4.6224 -2.0340 0.9798
-0.1866 4.6632 -2.0340 0.9798
4.2307 1.1870 -2.0340 0.9808
4.1082 1.5589 -2.0340 0.9808
3.9532 1.9185 -2.0340 0.9808
3.7667 2.2629 -2.0340 0.9808
3.5502 2.5892 -2.0340 0.9808
3.3056 2.8950 -2.0340 0.9808
2.7397 3.4354 -2.0340 0.9808
2.4230 3.6657 -2.0340 0.9808
0.9909 4.2809 -2.0340 0.9808
0.6059 4.3521 -2.0340 0.9808
3.9923 1.1201 -2.0339 0.9817
3.7304 1.8104 -2.0340 0.9817
3.5544 2.1354 -2.0340 0.9817
3.1193 2.7319 -2.0340 0.9817
2.5854 3.2418 -2.0340 0.9817
2.2864 3.4591 -2.0340 0.9817
1.9695 3.6489 -2.0340 0.9817
1.6367 3.8098 -2.0340 0.9817
0.9351 4.0397 -2.0340 0.9817
-0.1657 4.1431 -2.0339 0.9817
3.7749 1.0591 -2.0339 0.9825
3.6656 1.3910 -2.0339 0.9825
3.5272 1.7118 -2.0339 0.9825
3.3608 2.0190 -2.0340 0.9825
3.1677 2.3102 -2.0340 0.9825
2.9494 2.5831 -2.0340 0.9825
2.1619 3.2707 -2.0340 0.9825
1.5476 3.6023 -2.0340 0.9825
1.2208 3.7258 -2.0340 0.9825
0.8842 3.8196 -2.0340 0.9825
0.5406 3.8832 -2.0339 0.9825
0.1927 3.9159 -2.0339 0.9825
-0.1567 3.9175 -2.0339 0.9825
1.8669 0.5238 -1.0620 0.9912
3.4720 1.3175 -2.0339 0.9832
3.0004 2.1882 -2.0340 0.9832
2.7937 2.4466 -2.0340 0.9832
2.5648 2.6857 -2.0340 0.9832
1.1562 3.5290 -2.0339 0.9832
-0.1484 3.7106 -2.0339 0.9832
1.7111 0.4801 -1.0261 0.9918
2.8464 2.0759 -2.0339 0.9839
2.6502 2.3210 -2.0339 0.9839
2.4330 2.5478 -2.0339 0.9839
2.1966 2.7543 -2.0340 0.9839
1.9426 2.9389 -2.0340 0.9839
1.6732 3.1002 -2.0339 0.9839
1.3906 3.2369 -2.0339 0.9839
-0.4536 3.4935 -2.0339 0.9839
