ply
format ascii 1.0
element vertex 234
property float32 x
property float32 y
property float32 z
property float32 I
end_header
-11.3696 12.2752 2.1788 0.9347
-11.6255 12.5514 1.4483 0.9336
-12.1101 13.0746 0.3010 0.9312
-12.0227 12.9802 -0.4982 0.9316
-17.2703 4.9570 -1.3174 0.9305
-12.0941 13.0574 -1.7087 0.9310
-17.5496 5.0371 -1.7529 0.9293
-2.2154 7.3263 -0.9092 0.9696
-7.8316 15.2273 -2.0340 0.9334
-9.1785 14.4553 -2.0340 0.9334
-12.7252 11.4565 -2.0339 0.9334
-13.7103 10.2568 -2.0339 0.9334
-14.5828 8.9728 -2.0339 0.9334
-15.9619 6.1947 -2.0338 0.9334
-16.4572 4.7235 -2.0338 0.9334
-16.8171 3.2136 -2.0338 0.9334
-17.0389 1.6772 -2.0338 0.9334
-17.1207 0.1271 -2.0338 0.9334
-16.8625 -2.9635 -2.0337 0.9334
-15.4455 -7.3859 -2.0337 0.9334
-2.2256 7.3602 -1.0895 0.9694
-8.7607 11.3717 -2.0340 0.9437
-9.7545 10.5314 -2.0339 0.9437
-10.6682 9.6046 -2.0339 0.9437
-12.2256 7.5224 -2.0339 0.9437
-12.8566 6.3842 -2.0339 0.9437
-13.3818 5.1934 -2.0338 0.9437
-13.7971 3.9601 -2.0338 0.9437
-14.0989 2.6941 -2.0338 0.9437
-14.1369 -2.4845 -2.0338 0.9437
-13.8537 -3.7546 -2.0337 0.9437
-13.4567 -4.9939 -2.0337 0.9437
-4.6293 11.4460 -2.0340 0.9512
-5.6469 10.9796 -2.0340 0.9512
-8.3897 9.0579 -2.0339 0.9512
-9.8859 7.3957 -2.0339 0.9512
-11.5095 4.4668 -2.0339 0.9512
-11.8667 3.4060 -2.0338 0.9512
-12.1263 2.3172 -2.0338 0.9512
-4.9493 9.6231 -2.0340 0.9569
-5.8005 9.1352 -2.0340 0.9569
-7.3532 7.9388 -2.0339 0.9569
-8.6646 6.4820 -2.0339 0.9569
-9.2160 5.6706 -2.0339 0.9569
-10.4006 2.9852 -2.0338 0.9569
-10.6282 2.0309 -2.0338 0.9569
-10.8200 0.0803 -2.0338 0.9569
-10.7828 -0.9000 -2.0338 0.9569
-10.6569 -1.8729 -2.0338 0.9569
-10.4435 -2.8304 -2.0338 0.9569
-10.1442 -3.7646 -2.0338 0.9569
-4.4009 8.5569 -2.0340 0.9614
-5.8723 7.6225 -2.0339 0.9614
-7.7046 5.7638 -2.0339 0.9614
-8.1949 5.0423 -2.0339 0.9614
-8.9700 3.4812 -2.0339 0.9614
-9.2484 2.6545 -2.0339 0.9614
-9.4507 1.8059 -2.0338 0.9614
-9.5754 0.9425 -2.0338 0.9614
-9.6214 0.0714 -2.0338 0.9614
-9.5882 -0.8003 -2.0338 0.9614
-9.4763 -1.6654 -2.0338 0.9614
-9.0204 -3.3475 -2.0338 0.9614
-8.6801 -4.1507 -2.0338 0.9614
-2.1891 7.2395 -1.7775 0.9694
-4.6390 7.3059 -2.0339 0.9651
-5.2816 6.8557 -2.0339 0.9651
-5.8807 6.3491 -2.0339 0.9651
-6.4315 5.7904 -2.0339 0.9651
-7.7510 3.8488 -2.0339 0.9651
-8.5000 1.6242 -2.0338 0.9651
-8.6121 0.8477 -2.0338 0.9651
-8.6237 -0.7198 -2.0338 0.9651
-8.5230 -1.4979 -2.0338 0.9651
-8.3523 -2.2637 -2.0338 0.9651
-8.1130 -3.0108 -2.0338 0.9651
-7.8069 -3.7332 -2.0338 0.9651
-2.2738 7.5194 -2.0340 0.9681
-2.9454 7.2825 -2.0340 0.9681
-3.5929 6.9858 -2.0339 0.9681
-4.2108 6.6316 -2.0339 0.9681
-5.3380 5.7631 -2.0339 0.9681
-5.8380 5.2560 -2.0339 0.9681
-6.6904 4.1165 -2.0339 0.9681
-7.0356 3.4936 -2.0339 0.9681
-7.3231 2.8421 -2.0339 0.9681
-7.8173 0.7695 -2.0338 0.9681
-7.8549 0.0583 -2.0338 0.9681
-7.5815 -2.0547 -2.0338 0.9681
-7.0865 -3.3887 -2.0338 0.9681
-2.0796 6.8772 -2.0340 0.9706
-2.6939 6.6606 -2.0340 0.9706
-3.2861 6.3892 -2.0339 0.9706
-3.8512 6.0653 -2.0339 0.9706
-4.3847 5.6915 -2.0339 0.9706
-4.8821 5.2710 -2.0339 0.9706
-6.1190 3.7650 -2.0339 0.9706
-6.4348 3.1953 -2.0339 0.9706
-6.9056 1.9821 -2.0339 0.9706
-7.0567 1.3485 -2.0339 0.9706
-7.1498 0.7038 -2.0338 0.9706
-7.1594 -0.5976 -2.0338 0.9706
-7.0759 -1.2435 -2.0338 0.9706
-6.7354 -2.4996 -2.0338 0.9706
-2.4795 6.1303 -2.0339 0.9727
-3.5446 5.5824 -2.0339 0.9727
-4.9144 4.4244 -2.0339 0.9727
-5.2949 3.9611 -2.0339 0.9727
-6.1646 2.3924 -2.0339 0.9727
-6.4949 1.2411 -2.0339 0.9727
-6.5806 0.6478 -2.0339 0.9727
-6.6122 0.0491 -2.0338 0.9727
-5.9654 -2.8526 -2.0338 0.9727
-2.7986 5.4413 -2.0339 0.9745
-3.2799 5.1655 -2.0339 0.9745
-4.5473 4.0940 -2.0339 0.9745
-5.4802 2.7213 -2.0339 0.9745
-5.7041 2.2137 -2.0339 0.9745
-5.8812 1.6880 -2.0339 0.9745
-6.0098 1.1484 -2.0339 0.9745
-6.1184 0.0454 -2.0338 0.9745
-6.0973 -0.5089 -2.0338 0.9745
-5.7362 -2.1288 -2.0338 0.9745
-1.6463 5.4442 -2.0339 0.9761
-2.6014 5.0579 -2.0339 0.9761
-3.0487 4.8015 -2.0339 0.9761
-3.4711 4.5056 -2.0339 0.9761
-4.8440 2.9805 -2.0339 0.9761
-5.0940 2.5295 -2.0339 0.9761
-5.4668 1.5690 -2.0339 0.9761
-5.5863 1.0675 -2.0339 0.9761
-5.6600 0.5571 -2.0339 0.9761
-5.6872 0.0422 -2.0339 0.9761
-5.6015 -0.9844 -2.0338 0.9761
-5.4893 -1.4877 -2.0338 0.9761
-5.3320 -1.9788 -2.0338 0.9761
-1.9900 4.9203 -2.0339 0.9775
-3.2391 4.2045 -2.0339 0.9775
-3.9444 3.5511 -2.0339 0.9775
-4.2498 3.1793 -2.0339 0.9775
-4.5203 2.7813 -2.0339 0.9775
-4.7536 2.3604 -2.0339 0.9775
-4.9478 1.9202 -2.0339 0.9775
-5.1014 1.4642 -2.0339 0.9775
-5.2130 0.9962 -2.0339 0.9775
-5.2818 0.5199 -2.0339 0.9775
-5.2889 -0.4414 -2.0338 0.9775
-5.2271 -0.9186 -2.0338 0.9775
-5.1225 -1.3883 -2.0338 0.9775
-4.7880 -2.2896 -2.0338 0.9775
-1.4384 4.7569 -2.0339 0.9788
-1.8633 4.6070 -2.0339 0.9788
-2.2729 4.4193 -2.0339 0.9788
-3.0329 3.9368 -2.0339 0.9788
-3.3769 3.6459 -2.0339 0.9788
-4.2325 2.6042 -2.0339 0.9788
-4.6328 1.7979 -2.0339 0.9788
-4.7766 1.3710 -2.0339 0.9788
-2.1210 0.4053 -0.8838 0.9907
-2.1217 0.0157 -0.8684 0.9909
-2.1180 -0.1768 -0.8699 0.9909
-2.1188 -0.3724 -0.8805 0.9907
-4.6589 -1.7290 -2.0338 0.9788
-1.3508 4.4672 -2.0339 0.9798
-1.7498 4.3265 -2.0339 0.9798
-2.1345 4.1502 -2.0339 0.9798
-2.5016 3.9398 -2.0339 0.9798
-2.8482 3.6970 -2.0339 0.9798
-3.4683 3.1226 -2.0339 0.9798
-3.7368 2.7956 -2.0339 0.9798
-4.1798 2.0756 -2.0339 0.9798
-2.0194 0.5796 -0.9156 0.9909
-1.9050 0.3640 -0.8453 0.9916
-1.9139 -0.1598 -0.8370 0.9917
-1.9052 -0.3349 -0.8430 0.9916
-4.2101 -2.0133 -2.0338 0.9798
-1.2718 4.2059 -2.0339 0.9808
-2.0097 3.9075 -2.0339 0.9808
-2.9858 3.2237 -2.0339 0.9808
-3.5184 2.6321 -2.0339 0.9808
-3.7423 2.3026 -2.0339 0.9808
-3.9354 1.9542 -2.0339 0.9808
-4.0962 1.5897 -2.0339 0.9808
-1.6041 0.3065 -0.7559 0.9928
-1.5701 0.0116 -0.7268 0.9931
-1.6034 -0.1339 -0.7448 0.9929
-4.1193 -1.5287 -2.0338 0.9808
-1.2002 3.9689 -2.0339 0.9817
-1.5547 3.8439 -2.0339 0.9817
-1.8964 3.6873 -2.0339 0.9817
-2.2226 3.5004 -2.0339 0.9817
-2.5305 3.2847 -2.0339 0.9817
-2.8176 3.0420 -2.0339 0.9817
-3.0815 2.7743 -2.0339 0.9817
-3.3201 2.4838 -2.0339 0.9817
-3.7137 1.8441 -2.0339 0.9817
-1.2554 0.4872 -0.6606 0.9940
-1.3368 0.2554 -0.6676 0.9940
-1.3535 0.1332 -0.6671 0.9940
-1.3376 0.0099 -0.6562 0.9941
-1.3416 -0.2358 -0.6682 0.9939
-1.2606 -0.4679 -0.6596 0.9940
-3.7406 -1.7887 -2.0338 0.9817
-1.7932 3.4865 -2.0339 0.9825
-2.1016 3.3097 -2.0339 0.9825
-2.3927 3.1058 -2.0339 0.9825
-3.1393 2.3485 -2.0339 0.9825
-1.1539 0.3312 -0.6228 0.9946
-1.1931 0.0088 -0.6190 0.9946
-1.2004 -0.1002 -0.6249 0.9946
-1.1877 -0.2088 -0.6256 0.9946
-1.1596 -0.3143 -0.6233 0.9946
-1.1296 -0.4193 -0.6251 0.9946
-3.5368 -1.6913 -2.0339 0.9825
-1.3924 3.4426 -2.0339 0.9832
-1.6985 3.3024 -2.0339 0.9832
-1.9906 3.1349 -2.0339 0.9832
-3.1627 1.9461 -2.0339 0.9832
-0.9836 0.4884 -0.6014 0.9950
-1.0625 0.2030 -0.5924 0.9951
-1.0793 0.1062 -0.5940 0.9951
-1.0768 0.0080 -0.5898 0.9951
-1.0805 -0.0902 -0.5938 0.9951
-1.0210 -0.3789 -0.5965 0.9950
-1.6112 3.1328 -2.0339 0.9839
-2.1500 2.7907 -2.0339 0.9839
-2.3939 2.5845 -2.0339 0.9839
-2.6181 2.3571 -2.0339 0.9839
-2.8208 2.1103 -2.0339 0.9839
-0.9408 0.3651 -0.5826 0.9953
-0.9881 0.0972 -0.5732 0.9954
-0.9890 -0.0826 -0.5730 0.9954
-0.9791 -0.1721 -0.5740 0.9954
-0.9443 -0.3505 -0.5816 0.9954
