ply
format ascii 1.0
element vertex 186
property float32 x
property float32 y
property float32 z
property float32 I
end_header
17.4611 -3.4280 -0.9024 0.9312
2.6339 -6.1463 -0.6420 0.9735
2.3850 -16.9541 -2.0337 0.9334
3.8720 -16.6776 -2.0337 0.9334
2.5995 -6.0659 -0.7839 0.9738
8.1068 -15.0808 -2.0338 0.9334
9.4062 -14.3066 -2.0338 0.9334
10.6322 -13.4208 -2.0338 0.9334
11.7753 -12.4302 -2.0339 0.9334
12.8265 -11.3425 -2.0339 0.9334
13.7776 -10.1664 -2.0339 0.9334
15.3508 -7.5857 -2.0339 0.9334
15.9605 -6.2014 -2.0340 0.9334
17.1211 -0.2931 -2.0340 0.9333
1.9995 -14.2137 -2.0338 0.9437
2.5483 -5.9464 -0.9167 0.9742
8.9136 -11.2514 -2.0339 0.9437
9.8719 -10.4209 -2.0339 0.9437
11.5505 -8.5230 -2.0339 0.9437
13.3805 -5.1990 -2.0340 0.9437
13.7873 -3.9978 -2.0340 0.9437
14.2757 -1.5115 -2.0340 0.9437
0.6341 -12.3291 -2.0338 0.9512
1.7198 -12.2251 -2.0338 0.9512
1.9741 -6.0277 -1.0449 0.9746
2.5355 -5.9167 -1.0604 0.9742
3.1891 -5.9325 -1.1096 0.9731
10.5427 -6.4252 -2.0339 0.9512
11.0687 -5.4697 -2.0339 0.9512
11.8581 -3.4385 -2.0340 0.9512
12.1154 -2.3785 -2.0340 0.9512
0.5558 -10.8060 -2.0338 0.9569
1.5073 -10.7148 -2.0338 0.9569
1.9470 -5.9450 -1.1758 0.9749
2.5181 -5.8760 -1.2016 0.9743
5.9445 -9.0415 -2.0339 0.9569
7.4417 -7.8556 -2.0339 0.9569
8.1060 -7.1682 -2.0339 0.9569
9.2402 -5.6314 -2.0339 0.9569
10.6186 -2.0846 -2.0340 0.9569
10.8198 -0.1852 -2.0340 0.9569
0.4942 -9.6089 -2.0338 0.9614
1.3404 -9.5277 -2.0338 0.9614
3.0926 -5.7531 -1.3807 0.9736
5.2859 -8.0398 -2.0339 0.9614
7.2079 -6.3740 -2.0339 0.9614
8.9690 -3.4849 -2.0339 0.9614
9.2416 -2.6797 -2.0339 0.9614
9.4421 -1.8537 -2.0340 0.9614
9.5689 -1.0131 -2.0340 0.9614
9.6210 -0.1647 -2.0340 0.9614
1.4171 -6.1038 -1.4727 0.9746
1.8984 -5.7965 -1.4335 0.9752
2.4925 -5.8163 -1.4872 0.9743
5.3738 -6.7833 -2.0339 0.9651
6.4828 -5.7328 -2.0339 0.9651
8.0667 -3.1343 -2.0339 0.9651
8.6062 -0.9112 -2.0340 0.9651
8.6531 -0.1481 -2.0340 0.9651
1.9097 -5.8310 -1.5886 0.9750
2.5177 -5.8751 -1.6550 0.9739
3.1082 -5.7822 -1.6997 0.9732
6.7079 -4.0881 -2.0339 0.9681
7.5448 -2.1877 -2.0339 0.9681
7.7084 -1.5133 -2.0339 0.9681
7.8120 -0.8271 -2.0340 0.9681
7.8545 -0.1345 -2.0340 0.9681
1.8946 -5.7849 -1.7233 0.9750
3.9469 -6.0032 -2.0339 0.9706
4.4613 -5.6315 -2.0339 0.9706
6.1350 -3.7390 -2.0339 0.9706
6.4411 -3.1829 -2.0339 0.9706
7.1448 -0.7565 -2.0340 0.9706
0.3396 -6.6037 -2.0338 0.9727
0.9211 -6.5479 -2.0338 0.9727
1.4954 -6.4411 -2.0338 0.9727
2.6046 -6.0779 -2.0339 0.9727
3.1309 -5.8243 -2.0339 0.9727
3.6327 -5.5253 -2.0339 0.9727
4.5476 -4.8006 -2.0339 0.9727
5.3209 -3.9262 -2.0339 0.9727
5.6466 -3.4413 -2.0339 0.9727
6.1638 -2.3949 -2.0339 0.9727
6.3511 -1.8416 -2.0339 0.9727
6.6118 -0.1132 -2.0340 0.9727
0.3143 -6.1105 -2.0338 0.9745
1.3838 -5.9601 -2.0338 0.9745
1.9044 -5.8147 -2.0339 0.9745
2.8970 -5.3893 -2.0339 0.9745
3.3614 -5.1127 -2.0339 0.9745
4.5836 -4.0533 -2.0339 0.9745
4.9234 -3.6330 -2.0339 0.9745
5.2249 -3.1843 -2.0339 0.9745
6.0849 -0.6443 -2.0339 0.9745
0.2921 -5.6799 -2.0338 0.9761
1.7702 -5.4049 -2.0339 0.9761
2.6929 -5.0095 -2.0339 0.9761
3.5318 -4.4580 -2.0339 0.9761
4.2605 -3.7677 -2.0339 0.9761
4.5765 -3.3770 -2.0339 0.9761
4.8567 -2.9599 -2.0339 0.9761
5.0990 -2.5197 -2.0339 0.9761
5.3015 -2.0599 -2.0339 0.9761
5.4626 -1.5840 -2.0339 0.9761
5.6868 -0.0974 -2.0339 0.9761
2.9157 -4.4347 -2.0339 0.9775
3.2957 -4.1601 -2.0339 0.9775
3.6500 -3.8530 -2.0339 0.9775
3.9759 -3.5159 -2.0339 0.9775
4.5321 -2.7621 -2.0339 0.9775
4.7582 -2.3513 -2.0339 0.9775
5.0975 -1.4781 -2.0339 0.9775
5.2081 -1.0225 -2.0339 0.9775
5.2780 -0.5588 -2.0339 0.9775
5.3068 -0.0908 -2.0339 0.9775
0.2552 -4.9629 -2.0338 0.9788
0.6923 -4.9210 -2.0339 0.9788
1.1239 -4.8407 -2.0339 0.9788
1.5466 -4.7226 -2.0339 0.9788
1.9575 -4.5677 -2.0339 0.9788
2.3530 -4.3771 -2.0339 0.9788
3.4176 -3.6077 -2.0339 0.9788
3.9987 -2.9507 -2.0339 0.9788
4.2436 -2.5862 -2.0339 0.9788
4.4553 -2.2016 -2.0339 0.9788
4.6322 -1.7998 -2.0339 0.9788
4.9689 -0.0851 -2.0339 0.9787
0.2397 -4.6606 -2.0339 0.9798
1.0554 -4.5459 -2.0339 0.9798
1.8382 -4.2895 -2.0339 0.9798
3.4960 -3.0915 -2.0339 0.9798
3.9851 -2.4288 -2.0339 0.9798
4.4823 -1.2997 -2.0339 0.9798
4.5796 -0.8990 -2.0339 0.9798
4.6663 -0.0799 -2.0339 0.9798
0.2257 -4.3881 -2.0339 0.9808
0.6121 -4.3510 -2.0339 0.9808
0.9937 -4.2801 -2.0339 0.9808
1.7308 -4.0387 -2.0339 0.9808
2.0804 -3.8702 -2.0339 0.9808
3.0218 -3.1899 -2.0339 0.9808
3.2916 -2.9107 -2.0339 0.9808
3.9393 -1.9466 -2.0339 0.9808
4.0957 -1.5914 -2.0339 0.9808
4.2202 -1.2237 -2.0339 0.9808
4.3935 -0.0752 -2.0339 0.9808
0.2130 -4.1408 -2.0339 0.9817
0.5776 -4.1059 -2.0339 0.9817
0.9377 -4.0389 -2.0339 0.9817
1.9632 -3.6521 -2.0339 0.9817
2.2779 -3.4646 -2.0339 0.9817
2.8515 -3.0102 -2.0339 0.9817
3.5407 -2.1579 -2.0339 0.9817
3.7173 -1.8370 -2.0339 0.9817
4.1459 -0.0710 -2.0339 0.9817
0.2014 -3.9153 -2.0339 0.9825
0.5461 -3.8823 -2.0339 0.9825
1.2202 -3.7258 -2.0339 0.9825
1.5443 -3.6036 -2.0339 0.9825
2.1538 -3.2759 -2.0339 0.9825
2.4345 -3.0730 -2.0339 0.9825
2.6963 -2.8462 -2.0339 0.9825
2.9370 -2.5971 -2.0339 0.9825
3.6544 -1.4199 -2.0339 0.9825
2.0789 -0.2201 -1.0845 0.9906
0.1907 -3.7086 -2.0339 0.9832
0.5173 -3.6772 -2.0339 0.9832
0.8398 -3.6173 -2.0339 0.9832
1.1557 -3.5290 -2.0339 0.9832
1.4628 -3.4132 -2.0339 0.9832
2.0401 -3.1029 -2.0339 0.9832
2.3061 -2.9107 -2.0339 0.9832
2.5539 -2.6959 -2.0339 0.9832
2.7818 -2.4600 -2.0339 0.9832
3.3293 -1.6452 -2.0339 0.9832
3.4614 -1.3449 -2.0339 0.9832
1.8707 -0.5425 -1.0668 0.9912
0.1809 -3.5181 -2.0339 0.9839
0.4907 -3.4884 -2.0339 0.9839
0.7966 -3.4315 -2.0339 0.9839
1.0964 -3.3478 -2.0339 0.9839
2.4228 -2.5575 -2.0339 0.9839
2.8346 -2.0917 -2.0339 0.9839
3.0082 -1.8333 -2.0339 0.9839
3.1583 -1.5607 -2.0339 0.9839
1.7246 -0.0295 -0.9959 0.9921
