ply
format ascii 1.0
element vertex 176
property float32 x
property float32 y
property float32 z
property float32 I
end_header
-12.0629 13.1264 3.1434 0.9301
-11.3452 12.3454 2.1834 0.9346
-11.5930 12.6150 1.4503 0.9335
-12.3168 13.4026 1.1287 0.9296
-11.8068 12.8476 0.6880 0.9325
-12.0072 13.0658 -0.0999 0.9315
-12.0251 13.0852 -0.9013 0.9313
-17.6706 5.0119 -0.9315 0.9291
-12.0044 13.0627 -1.3008 0.9313
-12.0160 13.0753 -1.7049 0.9311
-17.5845 4.9874 -1.7548 0.9292
-0.1411 17.1234 -2.0341 0.9333
-1.4636 7.5296 -0.9112 0.9696
-2.1573 7.3947 -0.9150 0.9694
-6.2834 15.9289 -2.0340 0.9333
-7.7181 15.2852 -2.0340 0.9334
-10.3807 13.6175 -2.0340 0.9334
-12.6937 11.4913 -2.0339 0.9334
-13.6943 10.2782 -2.0339 0.9334
-15.3414 7.6029 -2.0339 0.9334
-15.9740 6.1634 -2.0338 0.9334
-16.8309 3.1410 -2.0338 0.9334
-0.7521 7.4878 -1.0663 0.9701
-11.4807 8.6168 -2.0339 0.9437
-12.2227 7.5272 -2.0339 0.9437
-13.3920 5.1671 -2.0338 0.9437
-0.7549 7.5152 -1.2443 0.9698
-1.4212 7.3119 -1.2271 0.9703
-4.5305 11.4854 -2.0340 0.9512
-7.4850 9.8188 -2.0339 0.9512
-8.3542 9.0906 -2.0339 0.9512
-9.1529 8.2859 -2.0339 0.9512
-11.5182 4.4442 -2.0339 0.9512
-0.0891 10.8211 -2.0340 0.9569
-0.7364 7.3316 -1.3850 0.9705
-2.0687 7.0912 -1.3884 0.9704
-3.9708 10.0664 -2.0340 0.9569
-6.5603 8.6058 -2.0339 0.9569
-8.0221 7.2621 -2.0339 0.9569
-8.6544 6.4955 -2.0339 0.9569
-9.2137 5.6741 -2.0339 0.9569
-10.0953 3.8951 -2.0339 0.9569
-10.4100 2.9525 -2.0338 0.9569
-10.6368 1.9850 -2.0338 0.9569
-0.7343 7.3107 -1.5531 0.9704
-2.0308 6.9613 -1.5328 0.9708
-3.5309 8.9511 -2.0340 0.9614
-4.3371 8.5894 -2.0340 0.9614
-5.1068 8.1552 -2.0339 0.9614
-5.8334 7.6523 -2.0339 0.9614
-7.1333 6.4576 -2.0339 0.9614
-9.2567 2.6254 -2.0339 0.9614
-9.4584 1.7651 -2.0338 0.9614
-0.7323 7.2905 -1.7221 0.9703
-1.4616 7.5190 -1.8002 0.9690
-3.9008 7.7253 -2.0340 0.9651
-4.5931 7.3348 -2.0339 0.9651
-5.8558 6.3721 -2.0339 0.9651
-6.9214 5.1948 -2.0339 0.9651
-7.3688 4.5379 -2.0339 0.9651
-7.7540 3.8427 -2.0339 0.9651
-8.0738 3.1151 -2.0339 0.9651
-8.3255 2.3613 -2.0339 0.9651
-8.5069 1.5876 -2.0338 0.9651
-0.0647 7.8555 -2.0340 0.9681
-1.4989 7.7113 -2.0340 0.9681
-2.2000 7.5413 -2.0340 0.9681
-3.5408 7.0123 -2.0339 0.9681
-6.2827 4.7154 -2.0339 0.9681
-7.0384 3.4881 -2.0339 0.9681
-7.3286 2.8277 -2.0339 0.9681
-7.5571 2.1434 -2.0339 0.9681
-7.7219 1.4410 -2.0339 0.9681
-0.0592 7.1846 -2.0340 0.9706
-0.7181 7.1488 -2.0340 0.9706
-2.0121 6.8972 -2.0340 0.9706
-2.6364 6.6836 -2.0340 0.9706
-3.2384 6.4135 -2.0339 0.9706
-3.8131 6.0893 -2.0339 0.9706
-4.3557 5.7138 -2.0339 0.9706
-4.8615 5.2901 -2.0339 0.9706
-5.3263 4.8217 -2.0339 0.9706
-6.1175 3.7673 -2.0339 0.9706
-6.9118 1.9604 -2.0339 0.9706
-0.0545 6.6126 -2.0340 0.9727
-1.8520 6.3481 -2.0340 0.9727
-2.4265 6.1515 -2.0339 0.9727
-3.5096 5.6046 -2.0339 0.9727
-4.0089 5.2589 -2.0339 0.9727
-4.4745 4.8689 -2.0339 0.9727
-4.9022 4.4379 -2.0339 0.9727
-5.2887 3.9694 -2.0339 0.9727
-5.9249 2.9363 -2.0339 0.9727
-6.1692 2.3803 -2.0339 0.9727
-6.5002 1.2131 -2.0339 0.9727
-1.1675 6.0065 -2.0340 0.9745
-1.7136 5.8740 -2.0340 0.9745
-3.2475 5.1860 -2.0339 0.9745
-3.7095 4.8661 -2.0339 0.9745
-4.8937 3.6729 -2.0339 0.9745
-5.2100 3.2085 -2.0339 0.9745
-5.7085 2.2025 -2.0339 0.9745
-5.8864 1.6696 -2.0339 0.9745
-6.0148 1.1225 -2.0339 0.9745
-0.5684 5.6592 -2.0340 0.9761
-1.0852 5.5832 -2.0340 0.9761
-3.4481 4.5232 -2.0339 0.9761
-4.5488 3.4141 -2.0339 0.9761
-4.8429 2.9824 -2.0339 0.9761
-5.0960 2.5255 -2.0339 0.9761
-5.5909 1.0434 -2.0339 0.9761
-1.4864 5.0951 -2.0339 0.9775
-3.2176 4.2209 -2.0339 0.9775
-3.5913 3.9079 -2.0339 0.9775
-3.9347 3.5619 -2.0339 0.9775
-4.2448 3.1860 -2.0339 0.9775
-4.7554 2.3567 -2.0339 0.9775
-4.9516 1.9105 -2.0339 0.9775
-5.1059 1.4482 -2.0339 0.9775
-0.0410 4.9695 -2.0340 0.9788
-0.9482 4.8783 -2.0339 0.9788
-1.8236 4.6229 -2.0339 0.9788
-2.6375 4.2119 -2.0339 0.9788
-3.0128 3.9522 -2.0339 0.9788
-3.9745 2.9831 -2.0339 0.9788
-4.2314 2.6059 -2.0339 0.9788
-4.4527 2.2067 -2.0339 0.9788
-4.7809 1.3560 -2.0339 0.9788
-0.0385 4.6668 -2.0340 0.9798
-2.1036 4.1660 -2.0339 0.9798
-3.9737 2.4472 -2.0339 0.9798
-4.3539 1.6799 -2.0339 0.9798
-2.0095 0.5699 -0.9103 0.9909
-1.9052 0.3555 -0.8446 0.9916
-0.0362 4.3939 -2.0339 0.9808
-0.4392 4.3721 -2.0339 0.9808
-0.8384 4.3133 -2.0339 0.9808
-1.2306 4.2182 -2.0339 0.9808
-1.6124 4.0875 -2.0339 0.9808
-1.9805 3.9223 -2.0339 0.9808
-2.9732 3.2353 -2.0339 0.9808
-3.2575 2.9489 -2.0339 0.9808
-4.0994 1.5817 -2.0339 0.9808
-1.5513 0.4400 -0.7464 0.9929
-1.6057 0.2996 -0.7561 0.9928
-0.4144 4.1257 -2.0339 0.9817
-1.1612 3.9805 -2.0339 0.9817
-1.5215 3.8572 -2.0339 0.9817
-2.8057 3.0530 -2.0339 0.9817
-3.5306 2.1742 -2.0339 0.9817
-1.2561 0.4846 -0.6604 0.9940
-0.0323 3.9205 -2.0339 0.9825
-1.4386 3.6471 -2.0339 0.9825
-2.9065 2.6312 -2.0339 0.9825
-3.3383 2.0558 -2.0339 0.9825
-1.1552 0.3276 -0.6229 0.9946
-0.0306 3.7134 -2.0339 0.9832
-0.7086 3.6453 -2.0339 0.9832
-1.3626 3.4545 -2.0339 0.9832
-1.6739 3.3149 -2.0339 0.9832
-1.9709 3.1473 -2.0339 0.9832
-2.5127 2.7343 -2.0339 0.9832
-2.7530 2.4922 -2.0339 0.9832
-2.9700 2.2291 -2.0339 0.9832
-3.1620 1.9472 -2.0339 0.9832
-0.9839 0.4875 -0.6014 0.9950
-1.0171 0.3924 -0.5971 0.9950
-0.3521 3.5052 -2.0339 0.9839
-1.2927 3.2771 -2.0339 0.9839
-1.5879 3.1447 -2.0339 0.9839
-2.1357 2.8016 -2.0339 0.9839
-2.6116 2.3642 -2.0339 0.9839
-2.8175 2.1147 -2.0339 0.9839
-2.9996 1.8472 -2.0339 0.9839
-0.9582 0.2717 -0.5750 0.9954
-0.9773 0.1824 -0.5740 0.9954
