ply
format ascii 1.0
element vertex 247
property float32 x
property float32 y
property float32 z
property float32 I
end_header
16.7256 -4.3585 -0.8766 0.9331
2.7852 -6.1150 -0.6451 0.9734
16.1108 -4.1982 -1.5984 0.9353
-7.6170 -15.3326 -2.0337 0.9334
-4.7869 -16.4377 -2.0337 0.9334
-3.3095 -16.7977 -2.0337 0.9334
1.6695 -6.5460 -0.8025 0.9732
2.2826 -6.4825 -0.8164 0.9727
2.7271 -5.9873 -0.7815 0.9738
12.0756 -12.1387 -2.0339 0.9334
14.0314 -9.8132 -2.0339 0.9334
16.5698 -4.3179 -2.0340 0.9334
17.0725 -1.3210 -2.0340 0.9333
-6.3859 -12.8544 -2.0337 0.9437
-0.2416 -14.3515 -2.0337 0.9437
1.0328 -14.3164 -2.0337 0.9437
2.2990 -14.1684 -2.0338 0.9437
1.6768 -6.5746 -0.9614 0.9730
2.1702 -6.1634 -0.9258 0.9739
2.6763 -5.8758 -0.9148 0.9743
9.1807 -11.0346 -2.0339 0.9437
10.9868 -9.2382 -2.0339 0.9437
11.7633 -8.2270 -2.0339 0.9437
13.0325 -6.0182 -2.0339 0.9437
13.5152 -4.8382 -2.0340 0.9437
13.8913 -3.6199 -2.0340 0.9437
-5.4924 -11.0561 -2.0337 0.9512
-4.4898 -11.4998 -2.0337 0.9512
-3.4517 -11.8529 -2.0337 0.9512
-2.3864 -12.1124 -2.0337 0.9512
-1.3022 -12.2764 -2.0338 0.9512
0.8883 -12.3134 -2.0338 0.9512
1.6369 -6.4184 -1.0912 0.9735
2.6718 -5.8659 -1.0619 0.9742
6.0942 -10.7368 -2.0338 0.9512
7.0229 -10.1538 -2.0338 0.9512
7.8962 -9.4907 -2.0339 0.9512
9.4496 -7.9456 -2.0339 0.9512
10.1174 -7.0758 -2.0339 0.9512
11.2090 -5.1762 -2.0339 0.9512
11.6242 -4.1612 -2.0340 0.9512
11.9476 -3.1134 -2.0340 0.9512
12.3100 -0.9525 -2.0340 0.9512
-4.8139 -9.6902 -2.0338 0.9569
-3.9351 -10.0791 -2.0338 0.9569
-3.0253 -10.3886 -2.0338 0.9569
-2.0916 -10.6161 -2.0338 0.9569
0.7786 -10.7922 -2.0338 0.9569
1.7330 -10.6806 -2.0338 0.9569
2.6041 -5.7173 -1.1808 0.9748
8.2821 -6.9640 -2.0339 0.9569
8.8674 -6.2017 -2.0339 0.9569
9.3828 -5.3904 -2.0339 0.9569
9.8241 -4.5367 -2.0339 0.9569
10.4715 -2.7287 -2.0340 0.9569
10.6724 -1.7888 -2.0340 0.9569
10.7891 -0.8348 -2.0340 0.9569
-3.4991 -8.9625 -2.0338 0.9614
-2.6902 -9.2377 -2.0338 0.9614
-1.8598 -9.4400 -2.0338 0.9614
-0.1620 -9.6202 -2.0338 0.9614
0.6923 -9.5966 -2.0338 0.9614
1.5411 -9.4974 -2.0338 0.9614
1.5877 -6.2254 -1.3580 0.9741
2.6194 -5.7508 -1.3358 0.9745
3.2579 -5.7398 -1.3951 0.9734
5.4733 -7.9134 -2.0339 0.9614
6.7860 -6.8214 -2.0339 0.9614
8.3432 -4.7932 -2.0339 0.9614
9.5938 -0.7423 -2.0340 0.9614
-3.8500 -7.7499 -2.0338 0.9651
0.6227 -8.6312 -2.0338 0.9651
1.5275 -5.9892 -1.4527 0.9749
2.0109 -5.7109 -1.4230 0.9754
2.6512 -5.8208 -1.5032 0.9741
3.2732 -5.7668 -1.5584 0.9731
5.5348 -6.6526 -2.0339 0.9651
7.8569 -3.6282 -2.0339 0.9651
8.1479 -2.9167 -2.0339 0.9651
8.3746 -2.1823 -2.0339 0.9651
8.5353 -1.4306 -2.0340 0.9651
8.6286 -0.6676 -2.0340 0.9651
-2.8567 -7.3171 -2.0338 0.9681
-2.1962 -7.5418 -2.0338 0.9681
-1.5184 -7.7069 -2.0338 0.9681
-0.1322 -7.8539 -2.0338 0.9681
0.5652 -7.8347 -2.0338 0.9681
1.2581 -7.7537 -2.0338 0.9681
2.6565 -5.8322 -1.6593 0.9739
3.3393 -5.8833 -1.7516 0.9724
4.4684 -6.4605 -2.0339 0.9681
5.5401 -5.5690 -2.0339 0.9681
6.0124 -5.0555 -2.0339 0.9681
6.4373 -4.5021 -2.0339 0.9681
7.3959 -2.6476 -2.0339 0.9681
7.8322 -0.6060 -2.0340 0.9681
-3.1963 -6.4340 -2.0338 0.9706
-2.6128 -6.6922 -2.0338 0.9706
-0.1209 -7.1833 -2.0338 0.9706
1.1507 -7.0916 -2.0338 0.9706
1.5360 -6.0229 -1.7596 0.9745
2.9780 -6.5381 -2.0339 0.9706
3.5464 -6.2481 -2.0339 0.9706
4.0869 -5.9089 -2.0339 0.9706
4.5950 -5.5229 -2.0339 0.9706
5.4989 -4.6238 -2.0339 0.9706
5.8876 -4.1176 -2.0339 0.9706
-2.9419 -5.9218 -2.0338 0.9727
-2.4048 -6.1595 -2.0338 0.9727
-0.1113 -6.6115 -2.0338 0.9727
0.4758 -6.5953 -2.0338 0.9727
2.1046 -5.9770 -1.9490 0.9738
3.7615 -5.4384 -2.0339 0.9727
4.6636 -4.6880 -2.0339 0.9727
6.0035 -2.7723 -2.0339 0.9727
6.2259 -2.2287 -2.0339 0.9727
6.5218 -1.0931 -2.0339 0.9727
-1.1827 -6.0031 -2.0338 0.9745
-0.6454 -6.0844 -2.0338 0.9745
0.4402 -6.1027 -2.0338 0.9745
1.5120 -5.9288 -2.0338 0.9745
2.0321 -5.7713 -2.0339 0.9745
3.9134 -4.7036 -2.0339 0.9745
4.6832 -3.9379 -2.0339 0.9745
5.3055 -3.0481 -2.0339 0.9745
5.5551 -2.5653 -2.0339 0.9745
5.7609 -2.0622 -2.0339 0.9745
6.1006 -0.4721 -2.0339 0.9745
-2.0684 -5.2979 -2.0338 0.9761
-1.0994 -5.5801 -2.0338 0.9761
0.4092 -5.6726 -2.0338 0.9761
0.9110 -5.6140 -2.0338 0.9761
1.8889 -5.3646 -2.0339 0.9761
2.3575 -5.1758 -2.0339 0.9761
3.2353 -4.6776 -2.0339 0.9761
4.0112 -4.0321 -2.0339 0.9761
4.3531 -3.6604 -2.0339 0.9761
4.6607 -3.2597 -2.0339 0.9761
4.9317 -2.8332 -2.0339 0.9761
5.3549 -1.9169 -2.0339 0.9761
-2.3612 -4.7530 -2.0338 0.9775
-1.9302 -4.9438 -2.0338 0.9775
-1.0259 -5.2071 -2.0338 0.9775
-0.5598 -5.2777 -2.0338 0.9775
1.3115 -5.1427 -2.0339 0.9775
3.3945 -4.0800 -2.0339 0.9775
3.7431 -3.7627 -2.0339 0.9775
4.0622 -3.4157 -2.0339 0.9775
4.9970 -1.7888 -2.0339 0.9775
5.1360 -1.3384 -2.0339 0.9775
5.2345 -0.8774 -2.0339 0.9775
-2.2109 -4.4505 -2.0338 0.9788
-1.3895 -4.7712 -2.0338 0.9788
-0.9606 -4.8757 -2.0338 0.9788
0.7959 -4.9052 -2.0339 0.9788
1.6505 -4.6874 -2.0339 0.9788
2.0599 -4.5224 -2.0339 0.9788
2.4530 -4.3218 -2.0339 0.9788
2.8268 -4.0871 -2.0339 0.9788
4.0724 -2.8481 -2.0339 0.9788
4.3091 -2.4756 -2.0339 0.9788
4.9012 -0.8215 -2.0339 0.9788
4.9548 -0.3834 -2.0339 0.9788
-1.6972 -4.3472 -2.0338 0.9798
-1.3048 -4.4806 -2.0338 0.9798
-0.4923 -4.6407 -2.0338 0.9798
0.3358 -4.6547 -2.0339 0.9798
1.1532 -4.5221 -2.0339 0.9798
1.9345 -4.2470 -2.0339 0.9798
2.3037 -4.0586 -2.0339 0.9798
2.6546 -3.8382 -2.0339 0.9798
3.8244 -2.6747 -2.0339 0.9798
4.2370 -1.9566 -2.0339 0.9798
4.3939 -1.5729 -2.0339 0.9798
4.6531 -0.3600 -2.0339 0.9798
-1.9548 -3.9350 -2.0338 0.9808
-1.5980 -4.0930 -2.0338 0.9808
-1.2285 -4.2186 -2.0338 0.9808
-0.0740 -4.3933 -2.0339 0.9808
0.3161 -4.3825 -2.0339 0.9808
1.0858 -4.2576 -2.0339 0.9808
2.1689 -3.8213 -2.0339 0.9808
2.8102 -3.3777 -2.0339 0.9808
3.0989 -3.1151 -2.0339 0.9808
3.6007 -2.5183 -2.0339 0.9808
3.8100 -2.1888 -2.0339 0.9808
3.9892 -1.8421 -2.0339 0.9808
4.1370 -1.4809 -2.0339 0.9808
4.2521 -1.1080 -2.0339 0.9808
4.3336 -0.7264 -2.0339 0.9808
-1.8447 -3.7133 -2.0338 0.9817
-1.5080 -3.8624 -2.0338 0.9817
-0.4374 -4.1232 -2.0339 0.9817
-0.0698 -4.1457 -2.0339 0.9817
0.6641 -4.0928 -2.0339 0.9817
1.0246 -4.0177 -2.0339 0.9817
2.0467 -3.6060 -2.0339 0.9817
3.1736 -2.6685 -2.0339 0.9817
3.5954 -2.0655 -2.0339 0.9817
3.7645 -1.7384 -2.0339 0.9817
3.9039 -1.3975 -2.0339 0.9817
4.0894 -0.6854 -2.0339 0.9817
-1.7442 -3.5111 -2.0338 0.9825
-0.7579 -3.8465 -2.0339 0.9825
-0.4136 -3.8986 -2.0339 0.9825
-0.0660 -3.9199 -2.0339 0.9825
0.2820 -3.9103 -2.0339 0.9825
0.6280 -3.8699 -2.0339 0.9825
1.3021 -3.6980 -2.0339 0.9825
1.9353 -3.4096 -2.0339 0.9825
2.5075 -3.0138 -2.0339 0.9825
3.0007 -2.5232 -2.0339 0.9825
3.2129 -2.2470 -2.0339 0.9825
3.3995 -1.9530 -2.0339 0.9825
3.5594 -1.6437 -2.0339 0.9825
3.6912 -1.3214 -2.0339 0.9825
-1.6521 -3.3257 -2.0338 0.9832
-1.3505 -3.4592 -2.0339 0.9832
-1.0383 -3.5653 -2.0339 0.9832
-0.7179 -3.6434 -2.0339 0.9832
0.9177 -3.5983 -2.0339 0.9832
1.2333 -3.5027 -2.0339 0.9832
1.5392 -3.3794 -2.0339 0.9832
1.8330 -3.2295 -2.0339 0.9832
2.1124 -3.0541 -2.0339 0.9832
2.6190 -2.6327 -2.0339 0.9832
2.8423 -2.3899 -2.0339 0.9832
3.0432 -2.1283 -2.0339 0.9832
3.3714 -1.5569 -2.0339 0.9832
1.8581 -0.4842 -1.0517 0.9913
1.8518 -0.3104 -1.0284 0.9915
1.8516 -0.1433 -1.0171 0.9916
-1.5673 -3.1549 -2.0339 0.9839
-1.2812 -3.2815 -2.0339 0.9839
-0.9850 -3.3823 -2.0339 0.9839
-0.6809 -3.4563 -2.0339 0.9839
-0.3716 -3.5031 -2.0339 0.9839
0.5643 -3.4773 -2.0339 0.9839
0.8705 -3.4135 -2.0339 0.9839
2.0039 -2.8973 -2.0339 0.9839
2.2531 -2.7081 -2.0339 0.9839
2.6963 -2.2672 -2.0339 0.9839
2.8869 -2.0190 -2.0339 0.9839
3.0546 -1.7549 -2.0339 0.9839
1.7236 -0.6170 -1.0569 0.9916
1.7132 -0.4465 -1.0222 0.9919
1.7142 -0.2873 -1.0035 0.9920
