ply
format ascii 1.0
element vertex 168
property float32 x
property float32 y
property float32 z
property float32 I
end_header
2.9294 -6.1248 -0.6518 0.9731
-6.2914 -15.9225 -2.0337 0.9334
-4.8122 -16.4303 -2.0337 0.9334
-3.2928 -16.8009 -2.0337 0.9334
2.8063 -5.8676 -0.7726 0.9741
8.7662 -14.7074 -2.0338 0.9334
11.2934 -12.8695 -2.0339 0.9334
14.3562 -9.3318 -2.0339 0.9334
15.1480 -7.9830 -2.0339 0.9334
-6.4706 -12.8120 -2.0337 0.9437
-5.2745 -13.3491 -2.0337 0.9437
-4.0344 -13.7747 -2.0337 0.9437
-2.7605 -14.0854 -2.0337 0.9437
-1.4637 -14.2786 -2.0337 0.9437
-0.1546 -14.3527 -2.0337 0.9437
2.4565 -14.1420 -2.0338 0.9437
1.7141 -6.3571 -0.9329 0.9738
2.8280 -5.9128 -0.9287 0.9739
8.4438 -11.6081 -2.0338 0.9437
9.4679 -10.7893 -2.0339 0.9437
12.0355 -7.8234 -2.0339 0.9437
-3.4699 -11.8476 -2.0337 0.9512
-0.1330 -12.3446 -2.0338 0.9512
0.9940 -12.3053 -2.0338 0.9512
2.1128 -12.1633 -2.0338 0.9512
2.7906 -5.8347 -1.0655 0.9741
6.3210 -10.6049 -2.0338 0.9512
8.1432 -9.2796 -2.0339 0.9512
9.6942 -7.6452 -2.0339 0.9512
10.3516 -6.7287 -2.0339 0.9512
-4.8778 -9.6582 -2.0338 0.9569
-2.0810 -10.6182 -2.0338 0.9569
-0.1166 -10.8196 -2.0338 0.9569
0.8712 -10.7852 -2.0338 0.9569
1.8518 -10.6607 -2.0338 0.9569
3.5902 -6.0235 -1.3180 0.9719
6.3652 -8.7505 -2.0339 0.9569
7.8496 -7.4480 -2.0339 0.9569
8.4966 -6.7007 -2.0339 0.9569
9.0727 -5.8975 -2.0339 0.9569
-4.3374 -8.5882 -2.0338 0.9614
-0.9812 -9.5713 -2.0338 0.9614
-0.1037 -9.6209 -2.0338 0.9614
0.7747 -9.5903 -2.0338 0.9614
2.1339 -5.7608 -1.2986 0.9752
2.7111 -5.6685 -1.3282 0.9746
5.6600 -7.7811 -2.0339 0.9614
7.5552 -5.9583 -2.0339 0.9614
-3.9011 -7.7243 -2.0338 0.9651
-3.1800 -8.0481 -2.0338 0.9651
-2.4323 -8.3047 -2.0338 0.9651
-0.8825 -8.6085 -2.0338 0.9651
-0.0932 -8.6531 -2.0338 0.9651
1.4810 -8.5260 -2.0338 0.9651
2.1765 -5.8759 -1.4727 0.9746
2.7075 -5.6608 -1.4748 0.9745
5.7080 -6.5046 -2.0339 0.9651
-3.5411 -7.0115 -2.0338 0.9681
-1.5108 -7.7084 -2.0338 0.9681
-0.0846 -7.8546 -2.0338 0.9681
1.3443 -7.7392 -2.0338 0.9681
1.5853 -5.8796 -1.5767 0.9752
2.1716 -5.8628 -1.6188 0.9745
4.6208 -6.3524 -2.0339 0.9681
5.1812 -5.9043 -2.0339 0.9681
-2.0193 -6.8946 -2.0338 0.9706
1.2295 -7.0783 -2.0338 0.9706
4.2262 -5.8100 -2.0339 0.9706
4.7387 -5.4001 -2.0339 0.9706
5.6413 -4.4490 -2.0339 0.9706
-2.9809 -5.9023 -2.0338 0.9727
-1.8586 -6.3458 -2.0338 0.9727
-1.2717 -6.4889 -2.0338 0.9727
0.5324 -6.5909 -2.0338 0.9727
1.7214 -6.3845 -2.0338 0.9727
2.8531 -5.9653 -2.0339 0.9727
3.3855 -5.6801 -2.0339 0.9727
5.5443 -3.6039 -2.0339 0.9727
-1.1768 -6.0043 -2.0338 0.9745
-0.6240 -6.0866 -2.0338 0.9745
-0.0659 -6.1182 -2.0338 0.9745
0.4926 -6.0987 -2.0338 0.9745
2.1253 -5.7377 -2.0339 0.9745
3.1327 -5.2559 -2.0339 0.9745
4.4386 -4.2116 -2.0339 0.9745
5.1302 -3.3348 -2.0339 0.9745
5.4131 -2.8527 -2.0339 0.9745
-2.5639 -5.0766 -2.0338 0.9761
-1.5986 -5.4580 -2.0338 0.9761
-1.0938 -5.5812 -2.0338 0.9761
2.4539 -5.1308 -2.0339 0.9761
3.3456 -4.5994 -2.0339 0.9761
4.1258 -3.9148 -2.0339 0.9761
5.0316 -2.6517 -2.0339 0.9761
-1.4917 -5.0933 -2.0338 0.9775
-0.0572 -5.3070 -2.0338 0.9775
0.9083 -5.2290 -2.0338 0.9775
1.3816 -5.1243 -2.0339 0.9775
1.8435 -4.9768 -2.0339 0.9775
2.7173 -4.5590 -2.0339 0.9775
3.8501 -3.6531 -2.0339 0.9775
4.1674 -3.2866 -2.0339 0.9775
4.4500 -2.8926 -2.0339 0.9775
4.6954 -2.4745 -2.0339 0.9775
-0.5068 -4.9435 -2.0338 0.9788
-0.0536 -4.9691 -2.0338 0.9788
0.4001 -4.9533 -2.0338 0.9788
0.8505 -4.8961 -2.0339 0.9788
1.2937 -4.7981 -2.0339 0.9788
2.1442 -4.4831 -2.0339 0.9788
2.5443 -4.2687 -2.0339 0.9788
2.9232 -4.0187 -2.0339 0.9788
3.2778 -3.7352 -2.0339 0.9788
4.1667 -2.7084 -2.0339 0.9788
4.3964 -2.3169 -2.0339 0.9788
-1.7149 -4.3402 -2.0338 0.9798
-1.3117 -4.4786 -2.0338 0.9798
0.7987 -4.5979 -2.0339 0.9798
1.2149 -4.5059 -2.0339 0.9798
2.3894 -4.0087 -2.0339 0.9798
3.0782 -3.5077 -2.0339 0.9798
3.3854 -3.2122 -2.0339 0.9798
4.1287 -2.1758 -2.0339 0.9798
-1.6146 -4.0864 -2.0338 0.9808
-0.4481 -4.3710 -2.0338 0.9808
0.7520 -4.3291 -2.0339 0.9808
1.5263 -4.1203 -2.0339 0.9808
1.8958 -3.9639 -2.0339 0.9808
2.2496 -3.7743 -2.0339 0.9808
2.5847 -3.5533 -2.0339 0.9808
2.8981 -3.3026 -2.0339 0.9808
3.4502 -2.7209 -2.0339 0.9808
3.6841 -2.3948 -2.0339 0.9808
-1.5237 -3.8562 -2.0338 0.9817
-1.1654 -3.9791 -2.0338 0.9817
-0.7975 -4.0689 -2.0338 0.9817
0.7096 -4.0852 -2.0339 0.9817
1.0794 -4.0034 -2.0339 0.9817
1.7890 -3.7405 -2.0339 0.9817
2.1229 -3.5617 -2.0339 0.9817
3.2558 -2.5676 -2.0339 0.9817
3.4765 -2.2598 -2.0339 0.9817
-1.7674 -3.4995 -2.0338 0.9825
-1.4407 -3.6462 -2.0338 0.9825
-0.7540 -3.8473 -2.0339 0.9825
-0.0423 -3.9202 -2.0339 0.9825
0.6709 -3.8627 -2.0339 0.9825
2.3062 -3.1705 -2.0339 0.9825
2.8441 -2.6985 -2.0339 0.9825
3.0784 -2.4278 -2.0339 0.9825
-0.7142 -3.6441 -2.0339 0.9832
0.9667 -3.5854 -2.0339 0.9832
1.6023 -3.3500 -2.0339 0.9832
2.1844 -3.0030 -2.0339 0.9832
2.4494 -2.7912 -2.0339 0.9832
2.6939 -2.5560 -2.0339 0.9832
2.9159 -2.2996 -2.0339 0.9832
3.2853 -1.7313 -2.0339 0.9832
-1.5881 -3.1445 -2.0339 0.9839
-0.3592 -3.5044 -2.0339 0.9839
-0.0380 -3.5226 -2.0339 0.9839
0.6029 -3.4708 -2.0339 0.9839
1.8036 -3.0261 -2.0339 0.9839
2.0723 -2.8488 -2.0339 0.9839
2.5556 -2.4248 -2.0339 0.9839
2.7662 -2.1815 -2.0339 0.9839
2.9537 -1.9200 -2.0339 0.9839
3.1166 -1.6424 -2.0339 0.9839
