ply
format ascii 1.0
element vertex 195
property float32 x
property float32 y
property float32 z
property float32 I
end_header
-13.1666 -8.0707 -1.1323 0.9399
-11.5934 -8.6585 -1.0610 0.9436
-12.7742 -7.8301 -1.4384 0.9416
-17.0486 -1.5727 -2.0337 0.9334
-15.3537 -7.5748 -2.0337 0.9334
-12.8398 -7.8703 -1.7889 0.9411
-11.3090 -8.4461 -1.6766 0.9447
-10.4232 -13.5818 -2.0337 0.9334
-9.1374 -14.4781 -2.0337 0.9334
-7.7750 -15.2531 -2.0337 0.9334
-4.8668 -16.4142 -2.0337 0.9334
-3.3453 -16.7906 -2.0337 0.9334
-1.7957 -17.0262 -2.0337 0.9334
1.3355 -17.0688 -2.0337 0.9334
-14.2930 -1.3185 -2.0338 0.9437
-12.8721 -6.3505 -2.0337 0.9437
-12.2373 -7.5011 -2.0337 0.9437
-9.7432 -10.5397 -2.0337 0.9437
-8.7385 -11.3866 -2.0337 0.9437
-4.0802 -13.7612 -2.0337 0.9437
-2.8046 -14.0767 -2.0337 0.9437
-1.5054 -14.2743 -2.0337 0.9437
-11.8809 -3.3541 -2.0338 0.9512
-11.5244 -4.4266 -2.0338 0.9512
-10.5252 -6.4516 -2.0337 0.9512
-9.8911 -7.3871 -2.0337 0.9512
-8.3801 -9.0652 -2.0337 0.9512
-7.5159 -9.7936 -2.0337 0.9512
-5.6064 -10.9987 -2.0337 0.9512
0.9630 -12.3078 -2.0338 0.9512
-10.7745 -0.9939 -2.0338 0.9569
-10.6385 -1.9752 -2.0338 0.9569
-9.2250 -5.6546 -2.0338 0.9569
-8.6692 -6.4746 -2.0338 0.9569
-8.0407 -7.2403 -2.0338 0.9569
-7.3448 -7.9453 -2.0337 0.9569
-6.5874 -8.5837 -2.0337 0.9569
-5.7748 -9.1502 -2.0337 0.9569
-4.9138 -9.6400 -2.0338 0.9569
-2.1142 -10.6116 -2.0338 0.9569
-0.1460 -10.8193 -2.0338 0.9569
0.8441 -10.7873 -2.0338 0.9569
-9.5809 -0.8838 -2.0338 0.9614
-9.4599 -1.7563 -2.0338 0.9614
-9.2596 -2.6141 -2.0338 0.9614
-8.9817 -3.4499 -2.0338 0.9614
-8.6285 -4.2569 -2.0338 0.9614
-8.2030 -5.0282 -2.0338 0.9614
-7.7088 -5.7573 -2.0338 0.9614
-7.1499 -6.4381 -2.0338 0.9614
-6.5311 -7.0651 -2.0338 0.9614
-5.8577 -7.6328 -2.0338 0.9614
-5.1351 -8.1365 -2.0338 0.9614
-1.8800 -9.4360 -2.0338 0.9614
-1.0091 -9.5684 -2.0338 0.9614
-0.1299 -9.6206 -2.0338 0.9614
0.7506 -9.5922 -2.0338 0.9614
-8.6171 -0.7949 -2.0338 0.9651
-8.0782 -3.1029 -2.0338 0.9651
-7.7605 -3.8287 -2.0338 0.9651
-7.3779 -4.5224 -2.0338 0.9651
-4.6185 -7.3180 -2.0338 0.9651
-3.9299 -7.7097 -2.0338 0.9651
-3.2084 -8.0368 -2.0338 0.9651
-2.4599 -8.2966 -2.0338 0.9651
-0.1168 -8.6529 -2.0338 0.9651
0.6751 -8.6273 -2.0338 0.9651
-7.8219 -0.7215 -2.0338 0.9681
-7.7230 -1.4339 -2.0338 0.9681
-7.0444 -3.4754 -2.0338 0.9681
-6.6970 -4.1051 -2.0338 0.9681
-6.2935 -4.7003 -2.0338 0.9681
-5.3321 -5.7679 -2.0338 0.9681
-4.7823 -6.2314 -2.0338 0.9681
-1.5348 -7.7036 -2.0338 0.9681
-0.8239 -7.8117 -2.0338 0.9681
-0.1060 -7.8543 -2.0338 0.9681
0.6127 -7.8312 -2.0338 0.9681
-7.1539 -0.6599 -2.0338 0.9706
-6.4428 -3.1786 -2.0338 0.9706
-6.1251 -3.7545 -2.0338 0.9706
-5.7561 -4.2989 -2.0338 0.9706
-5.3388 -4.8073 -2.0338 0.9706
-4.3739 -5.6993 -2.0338 0.9706
-3.2626 -6.4006 -2.0338 0.9706
-2.0423 -6.8879 -2.0338 0.9706
-1.4037 -7.0458 -2.0338 0.9706
-0.0970 -7.1837 -2.0338 0.9706
-6.5844 -0.6074 -2.0338 0.9727
-6.5013 -1.2071 -2.0338 0.9727
-6.3636 -1.7965 -2.0338 0.9727
-6.1726 -2.3710 -2.0338 0.9727
-4.9138 -4.4246 -2.0338 0.9727
-4.4886 -4.8555 -2.0338 0.9727
-4.0257 -5.2456 -2.0338 0.9727
-3.5291 -5.5918 -2.0338 0.9727
-2.4516 -6.1411 -2.0338 0.9727
-1.8797 -6.3396 -2.0338 0.9727
-0.0892 -6.6118 -2.0338 0.9727
0.5159 -6.5922 -2.0338 0.9727
-6.0157 -1.1169 -2.0338 0.9745
-5.7116 -2.1939 -2.0338 0.9745
-4.5468 -4.0942 -2.0338 0.9745
-2.7786 -5.4511 -2.0338 0.9745
-1.7393 -5.8661 -2.0338 0.9745
-1.1955 -6.0006 -2.0338 0.9745
-0.0826 -6.1180 -2.0338 0.9745
0.4773 -6.0999 -2.0338 0.9745
-5.6633 -0.5224 -2.0338 0.9761
-5.4734 -1.5452 -2.0338 0.9761
-5.1004 -2.5163 -2.0338 0.9761
-4.5567 -3.4032 -2.0338 0.9761
-3.8607 -4.1762 -2.0338 0.9761
-2.5828 -5.0670 -2.0338 0.9761
-1.6167 -5.4527 -2.0338 0.9761
-1.1113 -5.5777 -2.0338 0.9761
-0.5965 -5.6560 -2.0338 0.9761
-0.0768 -5.6869 -2.0338 0.9761
-5.2848 -0.4875 -2.0338 0.9775
-5.1076 -1.4420 -2.0338 0.9775
-4.7595 -2.3481 -2.0338 0.9775
-4.2523 -3.1758 -2.0338 0.9775
-3.6027 -3.8971 -2.0338 0.9775
-3.2311 -4.2103 -2.0338 0.9775
-2.8326 -4.4881 -2.0338 0.9775
-2.4102 -4.7284 -2.0338 0.9775
-1.9677 -4.9290 -2.0338 0.9775
-1.5087 -5.0883 -2.0338 0.9775
-1.0370 -5.2050 -2.0338 0.9775
-0.5566 -5.2780 -2.0338 0.9775
0.4140 -5.2911 -2.0338 0.9775
-2.1162 -0.1953 -0.8698 0.9909
-4.7825 -1.3502 -2.0338 0.9788
-4.6389 -1.7819 -2.0338 0.9788
-4.4565 -2.1987 -2.0338 0.9788
-3.9815 -2.9736 -2.0338 0.9788
-1.8424 -4.6152 -2.0338 0.9788
-0.5212 -4.9420 -2.0338 0.9788
0.3877 -4.9542 -2.0338 0.9788
-1.9123 -0.1764 -0.8370 0.9917
-4.3564 -1.6734 -2.0338 0.9798
-3.9787 -2.4388 -2.0338 0.9798
-2.8412 -3.7022 -2.0338 0.9798
-2.1194 -4.1577 -2.0338 0.9798
-0.4895 -4.6410 -2.0338 0.9798
-0.0630 -4.6663 -2.0338 0.9798
0.3640 -4.6525 -2.0339 0.9798
-1.6060 -0.2982 -0.7561 0.9928
-1.5523 -0.4383 -0.7466 0.9929
-3.9404 -1.9440 -2.0338 0.9808
-3.5204 -2.6292 -2.0338 0.9808
-2.6751 -3.4857 -2.0338 0.9808
-1.9954 -3.9146 -2.0338 0.9808
-1.6291 -4.0807 -2.0338 0.9808
-1.2490 -4.2126 -2.0338 0.9808
-0.0593 -4.3935 -2.0339 0.9808
0.3428 -4.3805 -2.0339 0.9808
-1.3534 -0.1249 -0.6667 0.9940
-1.3038 -0.3681 -0.6645 0.9940
-1.2567 -0.4827 -0.6603 0.9940
-3.5350 -2.1668 -2.0338 0.9817
-3.3220 -2.4811 -2.0338 0.9817
-1.1787 -3.9753 -2.0338 0.9817
-0.0560 -4.1459 -2.0339 0.9817
0.3234 -4.1337 -2.0339 0.9817
-1.1557 -0.3263 -0.6230 0.9946
-1.1259 -0.4325 -0.6257 0.9946
-3.5158 -1.7346 -2.0339 0.9825
-3.3425 -2.0488 -2.0338 0.9825
-3.1411 -2.3459 -2.0338 0.9825
-2.9134 -2.6233 -2.0338 0.9825
-1.1145 -3.7587 -2.0338 0.9825
-0.7661 -3.8449 -2.0339 0.9825
-0.4112 -3.8989 -2.0339 0.9825
-1.0639 -0.1976 -0.5927 0.9951
-1.0381 -0.2931 -0.5908 0.9951
-0.9846 -0.4858 -0.6013 0.9950
-3.1660 -1.9406 -2.0339 0.9832
-2.9752 -2.2221 -2.0338 0.9832
-2.7595 -2.4848 -2.0338 0.9832
-2.5207 -2.7268 -2.0338 0.9832
-1.9819 -3.1403 -2.0338 0.9832
-0.7256 -3.6419 -2.0339 0.9832
-0.0501 -3.7131 -2.0339 0.9832
-0.9583 -0.2706 -0.5749 0.9954
-3.0034 -1.8410 -2.0339 0.9839
-2.6179 -2.3572 -2.0339 0.9839
-2.1447 -2.7946 -2.0339 0.9839
-1.8802 -2.9791 -2.0339 0.9839
-1.5998 -3.1386 -2.0339 0.9839
-1.0014 -3.3774 -2.0339 0.9839
-0.6884 -3.4549 -2.0339 0.9839
-0.3695 -3.5033 -2.0339 0.9839
-0.0476 -3.5224 -2.0339 0.9839
0.2748 -3.5121 -2.0339 0.9839
