ply
format ascii 1.0
element vertex 210
property float32 x
property float32 y
property float32 z
property float32 I
end_header
16.4594 -3.5326 -1.2343 0.9347
13.5582 9.0738 -1.1962 0.9367
15.8406 -6.5014 -2.0340 0.9334
16.9953 -2.0906 -2.0340 0.9333
17.0972 0.9525 -2.0341 0.9333
16.9449 2.4688 -2.0341 0.9333
16.6585 3.9655 -2.0341 0.9333
16.2400 5.4309 -2.0341 0.9333
15.6930 6.8533 -2.0341 0.9333
15.0216 8.2213 -2.0341 0.9333
13.3282 10.7519 -2.0341 0.9333
11.2133 12.9425 -2.0341 0.9333
10.0182 13.8882 -2.0341 0.9333
8.7438 14.7238 -2.0341 0.9333
12.7427 -6.6095 -2.0339 0.9437
13.2800 -5.4505 -2.0340 0.9437
13.7121 -4.2483 -2.0340 0.9437
14.0356 -3.0124 -2.0340 0.9437
14.2480 -1.7527 -2.0340 0.9437
14.3334 0.7985 -2.0340 0.9437
14.2057 2.0697 -2.0340 0.9437
13.6147 4.5529 -2.0341 0.9437
13.1561 5.7454 -2.0341 0.9437
12.5933 6.8923 -2.0341 0.9437
11.9306 7.9846 -2.0341 0.9437
10.3280 9.9714 -2.0341 0.9437
10.9598 -5.6847 -2.0339 0.9512
11.7935 -3.6539 -2.0340 0.9512
12.0718 -2.5909 -2.0340 0.9512
12.3399 -0.4120 -2.0340 0.9512
12.2180 1.7801 -2.0340 0.9512
12.0114 2.8593 -2.0340 0.9512
11.3152 4.9414 -2.0341 0.9512
10.8311 5.9279 -2.0341 0.9512
10.2612 6.8673 -2.0341 0.9512
9.6100 7.7525 -2.0341 0.9512
8.0852 9.3320 -2.0341 0.9512
7.2235 10.0138 -2.0341 0.9512
9.6057 -4.9824 -2.0339 0.9569
10.0107 -4.1087 -2.0339 0.9569
10.5803 -2.2708 -2.0340 0.9569
10.8153 -0.3611 -2.0340 0.9569
10.8046 0.6019 -2.0340 0.9569
10.7084 1.5601 -2.0340 0.9569
10.5273 2.5060 -2.0340 0.9569
9.9172 4.3309 -2.0340 0.9569
9.4929 5.1954 -2.0340 0.9569
8.9934 6.0188 -2.0340 0.9569
7.7853 7.5165 -2.0341 0.9569
7.0862 8.1789 -2.0341 0.9569
5.5256 9.3046 -2.0341 0.9569
8.9016 -3.6535 -2.0339 0.9614
9.1912 -2.8476 -2.0339 0.9614
9.4081 -2.0192 -2.0340 0.9614
9.5504 -1.1748 -2.0340 0.9614
9.6170 -0.3211 -2.0340 0.9614
9.6075 0.5352 -2.0340 0.9614
9.3610 2.2284 -2.0340 0.9614
9.1258 3.0518 -2.0340 0.9614
8.8184 3.8510 -2.0340 0.9614
8.4411 4.6198 -2.0340 0.9614
7.9970 5.3520 -2.0340 0.9614
6.3010 7.2727 -2.0340 0.9614
4.9134 8.2737 -2.0340 0.9614
7.6822 -3.9847 -2.0339 0.9651
8.0061 -3.2859 -2.0339 0.9651
8.2666 -2.5612 -2.0339 0.9651
8.4616 -1.8161 -2.0340 0.9651
8.4192 2.0042 -2.0340 0.9651
7.5919 4.1550 -2.0340 0.9651
7.1925 4.8136 -2.0340 0.9651
5.6671 6.5411 -2.0340 0.9651
5.0631 7.0190 -2.0340 0.9651
4.4191 7.4413 -2.0340 0.9651
6.9732 -3.6170 -2.0339 0.9681
7.5037 -2.3248 -2.0339 0.9681
7.6807 -1.6485 -2.0339 0.9681
7.7968 -0.9591 -2.0340 0.9681
7.8435 0.4369 -2.0340 0.9681
7.6422 1.8192 -2.0340 0.9681
6.8912 3.7715 -2.0340 0.9681
6.1143 4.9324 -2.0340 0.9681
5.1441 5.9373 -2.0340 0.9681
6.3777 -3.3081 -2.0339 0.9706
7.1808 -0.2397 -2.0340 0.9706
7.1737 0.3996 -2.0340 0.9706
7.1098 1.0358 -2.0340 0.9706
6.8139 2.2787 -2.0340 0.9706
6.5844 2.8754 -2.0340 0.9706
6.3027 3.4495 -2.0340 0.9706
5.5921 4.5112 -2.0340 0.9706
4.7048 5.4303 -2.0340 0.9706
4.2033 5.8271 -2.0340 0.9706
5.8700 -3.0447 -2.0339 0.9727
6.3165 -1.9570 -2.0339 0.9727
6.4655 -1.3877 -2.0339 0.9727
6.5633 -0.8074 -2.0339 0.9727
6.6026 0.3678 -2.0340 0.9727
5.8009 3.1748 -2.0340 0.9727
5.4957 3.6780 -2.0340 0.9727
5.1470 4.1521 -2.0340 0.9727
4.7574 4.5932 -2.0340 0.9727
5.4316 -2.8173 -2.0339 0.9745
5.6606 -2.3233 -2.0339 0.9745
5.9826 -1.2840 -2.0339 0.9745
6.0731 -0.7471 -2.0339 0.9745
6.1155 -0.2042 -2.0340 0.9745
6.1095 0.3403 -2.0340 0.9745
5.9526 1.4170 -2.0340 0.9745
5.8031 1.9406 -2.0340 0.9745
5.6075 2.4488 -2.0340 0.9745
5.3677 2.9377 -2.0340 0.9745
4.7625 3.8419 -2.0340 0.9745
4.4021 4.2501 -2.0340 0.9745
5.0489 -2.6188 -2.0339 0.9761
5.2617 -2.1596 -2.0339 0.9761
5.5610 -1.1935 -2.0339 0.9761
5.6845 -0.1898 -2.0339 0.9761
5.6789 0.3163 -2.0340 0.9761
5.6283 0.8200 -2.0340 0.9761
5.5331 1.3171 -2.0340 0.9761
5.3941 1.8038 -2.0340 0.9761
5.2124 2.2763 -2.0340 0.9761
4.9894 2.7307 -2.0340 0.9761
4.4269 3.5712 -2.0340 0.9761
4.0918 3.9506 -2.0340 0.9761
3.7245 4.2987 -2.0340 0.9761
2.9042 4.8904 -2.0340 0.9761
5.0697 -1.5707 -2.0339 0.9775
5.1893 -1.1138 -2.0339 0.9775
5.2679 -0.6480 -2.0339 0.9775
5.2994 0.2952 -2.0339 0.9775
4.8640 2.1241 -2.0340 0.9775
4.4109 2.9520 -2.0340 0.9775
4.1310 3.3325 -2.0340 0.9775
2.7101 4.5636 -2.0340 0.9775
4.9325 -0.6068 -2.0339 0.9787
4.7131 1.5761 -2.0340 0.9787
4.3595 2.3859 -2.0340 0.9787
4.1301 2.7641 -2.0340 0.9787
3.8680 3.1203 -2.0340 0.9787
3.2542 3.7561 -2.0340 0.9787
4.3175 -1.7720 -2.0339 0.9798
4.5630 -0.9794 -2.0339 0.9798
4.5401 1.0807 -2.0340 0.9798
4.4261 1.4801 -2.0340 0.9798
3.0561 3.5273 -2.0340 0.9798
2.7304 3.7850 -2.0340 0.9798
2.3830 4.0128 -2.0340 0.9798
4.2962 -0.9221 -2.0339 0.9808
4.3612 -0.5365 -2.0339 0.9808
4.3872 0.2444 -2.0339 0.9808
4.3482 0.6335 -2.0339 0.9808
4.2746 1.0175 -2.0339 0.9808
3.8546 2.1096 -2.0340 0.9808
3.6518 2.4439 -2.0340 0.9808
3.1612 3.0521 -2.0340 0.9808
2.8773 3.3210 -2.0340 0.9808
2.5707 3.5637 -2.0340 0.9808
2.2437 3.7781 -2.0340 0.9808
3.6807 -1.9091 -2.0339 0.9817
3.9607 -1.2271 -2.0339 0.9817
4.1442 -0.1384 -2.0339 0.9817
4.1401 0.2306 -2.0339 0.9817
4.1032 0.5978 -2.0339 0.9817
4.0338 0.9602 -2.0339 0.9817
3.9324 1.3150 -2.0339 0.9817
3.8000 1.6595 -2.0340 0.9817
3.6374 1.9907 -2.0340 0.9817
3.2273 2.6035 -2.0340 0.9817
2.9831 2.8801 -2.0340 0.9817
2.7152 3.1339 -2.0340 0.9817
2.1172 3.5652 -2.0340 0.9817
3.6270 -1.4886 -2.0339 0.9825
2.0872 -0.2568 -1.0910 0.9906
2.0766 -0.0693 -1.0779 0.9907
3.8141 0.9079 -2.0339 0.9825
3.7182 1.2434 -2.0339 0.9825
3.4393 1.8823 -2.0340 0.9825
3.2583 2.1806 -2.0340 0.9825
2.8206 2.7232 -2.0340 0.9825
2.5673 2.9632 -2.0340 0.9825
2.0019 3.3710 -2.0340 0.9825
3.2965 -1.7098 -2.0339 0.9832
3.4354 -1.4100 -2.0339 0.9832
1.8795 -0.5823 -1.0776 0.9911
1.8454 -0.2270 -1.0184 0.9916
1.8525 -0.0619 -1.0152 0.9916
1.8527 0.1032 -1.0163 0.9916
1.8473 0.2691 -1.0224 0.9915
1.8576 0.4422 -1.0458 0.9913
3.2576 1.7829 -2.0339 0.9832
3.0862 2.0654 -2.0340 0.9832
2.6716 2.5794 -2.0340 0.9832
2.4317 2.8067 -2.0340 0.9832
3.1272 -1.6221 -2.0339 0.9839
1.7193 -0.5327 -1.0392 0.9917
1.7149 -0.3681 -1.0126 0.9919
1.7235 0.0960 -0.9966 0.9921
1.7137 0.2496 -0.9998 0.9920
1.7146 0.4081 -1.0176 0.9919
1.7247 0.5768 -1.0500 0.9916
1.7727 0.7741 -1.1168 0.9911
3.0904 1.6913 -2.0339 0.9839
2.9277 1.9594 -2.0339 0.9839
2.7420 2.2119 -2.0339 0.9839
2.5345 2.4470 -2.0339 0.9839
2.3068 2.6626 -2.0340 0.9839
2.0610 2.8571 -2.0340 0.9839
1.7988 3.0290 -2.0339 0.9839
