ply
format ascii 1.0
element vertex 186
property float32 x
property float32 y
property float32 z
property float32 I
end_header
3.6159 18.4730 3.3191 0.9264
1.9352 18.9192 3.3534 0.9257
1.8103 17.6989 2.7255 0.9305
3.4679 17.7173 1.5283 0.9301
1.8987 18.5633 1.5796 0.9278
-5.1683 19.1560 1.6796 0.9234
-12.6987 12.0475 1.4818 0.9321
3.4355 17.5520 1.1091 0.9308
1.7944 17.5432 1.0935 0.9318
3.5970 18.3768 0.7384 0.9278
1.9232 18.8028 0.7453 0.9271
-12.4092 14.1388 0.7418 0.9275
3.6647 18.7227 0.3223 0.9265
-1.3718 7.8892 -0.7688 0.9683
7.7155 15.2878 -2.0341 0.9333
6.2884 15.9279 -2.0341 0.9333
4.8090 16.4352 -2.0341 0.9333
1.7424 17.0352 -2.0341 0.9333
-1.9619 7.2713 -0.8946 0.9701
-5.9502 16.0564 -2.0340 0.9333
-8.7686 14.7076 -2.0340 0.9334
-11.2949 12.8691 -2.0339 0.9334
6.4682 12.8163 -2.0341 0.9437
5.2718 13.3530 -2.0341 0.9437
4.0316 13.7782 -2.0341 0.9437
1.4607 14.2814 -2.0341 0.9437
-11.2717 8.8884 -2.0339 0.9437
-12.0356 7.8229 -2.0339 0.9437
5.5631 11.0230 -2.0341 0.9512
-1.2594 7.2428 -1.2111 0.9706
-1.9357 7.1742 -1.2241 0.9703
-4.2903 11.5773 -2.0340 0.9512
-5.3287 11.1376 -2.0340 0.9512
-6.3225 10.6048 -2.0340 0.9512
-7.2637 9.9837 -2.0339 0.9512
-8.9568 8.4975 -2.0339 0.9512
-10.3516 6.7283 -2.0339 0.9512
3.9740 10.0655 -2.0340 0.9569
1.1011 10.7654 -2.0340 0.9569
0.1143 10.8209 -2.0340 0.9569
-1.2609 7.2513 -1.3834 0.9705
-1.8965 7.0292 -1.3685 0.9708
-4.6703 9.7615 -2.0340 0.9569
-5.5414 9.2946 -2.0340 0.9569
-6.3663 8.7502 -2.0339 0.9569
-7.1380 8.1328 -2.0339 0.9569
-8.4969 6.7003 -2.0339 0.9569
-9.0727 5.8971 -2.0339 0.9569
3.5336 8.9503 -2.0340 0.9614
0.9791 9.5726 -2.0340 0.9614
-1.2480 7.1770 -1.5399 0.9707
-1.9172 7.1059 -1.5558 0.9704
-3.3436 9.0228 -2.0340 0.9614
-4.1529 8.6800 -2.0340 0.9614
-4.9275 8.2648 -2.0340 0.9614
-5.6609 7.7808 -2.0339 0.9614
3.8993 7.7264 -2.0340 0.9651
3.1781 8.0499 -2.0340 0.9651
0.8806 8.6096 -2.0340 0.9651
-0.6014 7.4280 -1.7515 0.9698
-5.0914 6.9980 -2.0339 0.9651
-5.7087 6.5043 -2.0339 0.9651
-6.2782 5.9563 -2.0339 0.9651
-7.2560 4.7162 -2.0339 0.9651
3.5395 7.0133 -2.0340 0.9681
0.0830 7.8553 -2.0340 0.9681
-2.0463 7.5844 -2.0340 0.9681
-3.3904 7.0863 -2.0340 0.9681
-4.0227 6.7474 -2.0339 0.9681
-4.6216 6.3522 -2.0339 0.9681
-5.1818 5.9040 -2.0339 0.9681
-5.6988 5.4066 -2.0339 0.9681
-6.5863 4.2810 -2.0339 0.9681
2.6384 6.6829 -2.0340 0.9706
0.7311 7.1476 -2.0340 0.9706
-0.5799 7.1614 -2.0340 0.9706
-1.8716 6.9367 -2.0340 0.9706
-2.4966 6.7371 -2.0340 0.9706
-3.6792 6.1712 -2.0339 0.9706
-4.2269 5.8097 -2.0339 0.9706
-4.7393 5.3998 -2.0339 0.9706
-5.6416 4.4487 -2.0339 0.9706
-1.1329 6.5151 -2.0340 0.9727
-1.7225 6.3845 -2.0340 0.9727
-2.8539 5.9652 -2.0339 0.9727
-3.8904 5.3472 -2.0339 0.9727
-4.3620 4.9699 -2.0339 0.9727
-4.7972 4.5512 -2.0339 0.9727
-5.1925 4.0945 -2.0339 0.9727
-5.5443 3.6037 -2.0339 0.9727
2.7569 5.4627 -2.0340 0.9745
1.1754 6.0050 -2.0340 0.9745
-0.4939 6.0990 -2.0340 0.9745
-1.0482 6.0284 -2.0340 0.9745
-1.5939 5.9076 -2.0340 0.9745
-2.1262 5.7376 -2.0339 0.9745
-2.6408 5.5196 -2.0339 0.9745
-3.1334 5.2557 -2.0339 0.9745
-3.5998 4.9478 -2.0339 0.9745
-4.4389 4.2113 -2.0339 0.9745
-4.8046 3.7887 -2.0339 0.9745
-5.1302 3.3346 -2.0339 0.9745
2.0886 5.2903 -2.0340 0.9761
1.5973 5.4588 -2.0340 0.9761
1.0926 5.5818 -2.0340 0.9761
-0.9744 5.6036 -2.0340 0.9761
-1.4816 5.4913 -2.0339 0.9761
-1.9764 5.3332 -2.0339 0.9761
-2.4547 5.1307 -2.0339 0.9761
-3.3461 4.5991 -2.0339 0.9761
-3.7518 4.2747 -2.0339 0.9761
-4.1261 3.9145 -2.0339 0.9761
1.4905 5.0940 -2.0340 0.9775
1.0196 5.2087 -2.0340 0.9775
0.0561 5.3073 -2.0340 0.9775
-0.4284 5.2902 -2.0340 0.9775
-1.8443 4.9768 -2.0339 0.9775
-2.2907 4.7877 -2.0339 0.9775
-2.7179 4.5588 -2.0339 0.9775
-3.1225 4.2918 -2.0339 0.9775
-3.5010 3.9890 -2.0339 0.9775
-3.8504 3.6529 -2.0339 0.9775
-4.1675 3.2863 -2.0339 0.9775
-4.4500 2.8924 -2.0339 0.9775
1.8250 4.6225 -2.0340 0.9787
0.9546 4.8771 -2.0340 0.9787
0.5057 4.9439 -2.0340 0.9787
-0.4011 4.9534 -2.0340 0.9788
-1.2945 4.7980 -2.0339 0.9788
-2.1448 4.4829 -2.0339 0.9788
-2.9237 4.0185 -2.0339 0.9788
-3.2781 3.7350 -2.0339 0.9788
-3.6052 3.4204 -2.0339 0.9788
-4.1667 2.7083 -2.0339 0.9788
2.1027 4.1665 -2.0340 0.9798
1.7138 4.3409 -2.0340 0.9798
0.8965 4.5801 -2.0340 0.9798
0.0493 4.6667 -2.0340 0.9798
-1.2157 4.5058 -2.0339 0.9798
-2.0142 4.2099 -2.0339 0.9798
-2.7456 3.7738 -2.0339 0.9798
-3.0785 3.5075 -2.0339 0.9798
-3.3856 3.2120 -2.0339 0.9798
-3.6646 2.8897 -2.0339 0.9798
-3.9129 2.5433 -2.0339 0.9798
1.6136 4.0871 -2.0340 0.9808
0.8441 4.3122 -2.0340 0.9808
-1.8964 3.9637 -2.0339 0.9808
-2.2502 3.7741 -2.0339 0.9808
-3.1877 3.0242 -2.0339 0.9808
-3.4503 2.7208 -2.0339 0.9808
-3.6841 2.3946 -2.0339 0.9808
-1.0801 4.0033 -2.0339 0.9817
-2.1234 3.5615 -2.0339 0.9817
-3.2559 2.5674 -2.0339 0.9817
-3.4765 2.2597 -2.0339 0.9817
1.7664 3.5002 -2.0340 0.9825
1.1010 3.7629 -2.0340 0.9825
0.7531 3.8476 -2.0340 0.9825
0.3989 3.9003 -2.0339 0.9825
0.0414 3.9204 -2.0339 0.9825
-0.6717 3.8627 -2.0339 0.9825
-1.0213 3.7852 -2.0339 0.9825
-1.3624 3.6763 -2.0339 0.9825
-1.6921 3.5367 -2.0339 0.9825
-2.8442 2.6984 -2.0339 0.9825
1.6732 3.3153 -2.0340 0.9832
1.0429 3.5641 -2.0339 0.9832
0.7134 3.6444 -2.0339 0.9832
0.0392 3.7134 -2.0339 0.9832
-0.6362 3.6587 -2.0339 0.9832
-1.2904 3.4821 -2.0339 0.9832
-1.6027 3.3499 -2.0339 0.9832
-2.1847 3.0029 -2.0339 0.9832
-2.4496 2.7910 -2.0339 0.9832
-2.9160 2.2994 -2.0339 0.9832
-3.1136 2.0238 -2.0339 0.9832
1.5873 3.1451 -2.0339 0.9839
0.9893 3.3811 -2.0339 0.9839
0.3584 3.5046 -2.0339 0.9839
-1.2242 3.3033 -2.0339 0.9839
-1.8040 3.0259 -2.0339 0.9839
-2.0725 2.8487 -2.0339 0.9839
-2.5557 2.4246 -2.0339 0.9839
-2.7662 2.1813 -2.0339 0.9839
-2.9537 1.9198 -2.0339 0.9839
