ply
format ascii 1.0
element vertex 192
property float32 x
property float32 y
property float32 z
property float32 I
end_header
-16.1659 5.7581 -1.2583 0.9335
-12.4573 -7.8298 -1.0788 0.9427
-12.5550 -7.8912 -1.4237 0.9422
-14.8347 8.5498 -2.0339 0.9334
-16.8986 2.7534 -2.0338 0.9334
-17.0779 1.2178 -2.0338 0.9334
-17.1180 -0.3278 -2.0337 0.9334
-16.7802 -3.3982 -2.0337 0.9334
-16.4052 -4.8980 -2.0337 0.9334
-15.8963 -6.3579 -2.0337 0.9334
-12.6221 -11.5668 -2.0337 0.9334
-11.5272 -12.6582 -2.0337 0.9334
-10.3383 -13.6465 -2.0337 0.9334
-9.0652 -14.5234 -2.0337 0.9334
-14.3175 1.0209 -2.0338 0.9437
-14.2677 -1.5683 -2.0338 0.9437
-14.0680 -2.8490 -2.0337 0.9437
-13.7536 -4.1064 -2.0337 0.9437
-12.7918 -6.5107 -2.0337 0.9437
-12.1523 -7.6381 -2.0337 0.9437
-10.5820 -9.6973 -2.0337 0.9437
-8.6674 -11.4408 -2.0337 0.9437
-7.6000 -12.1761 -2.0337 0.9437
-10.6967 6.1649 -2.0339 0.9512
-11.2091 5.1748 -2.0339 0.9512
-12.3143 0.8781 -2.0338 0.9512
-12.2715 -1.3489 -2.0338 0.9512
-11.4625 -4.5845 -2.0338 0.9512
-11.0021 -5.5998 -2.0337 0.9512
-9.8168 -7.4855 -2.0337 0.9512
-8.3120 -9.1276 -2.0337 0.9512
-6.5367 -10.4725 -2.0337 0.9512
-9.3752 5.4033 -2.0339 0.9569
-10.6796 1.7401 -2.0338 0.9569
-10.6050 -2.1477 -2.0338 0.9569
-10.3680 -3.0955 -2.0338 0.9569
-9.6429 -4.9081 -2.0338 0.9569
-5.7292 -9.1788 -2.0337 0.9569
-8.3365 4.8046 -2.0339 0.9614
-8.7359 4.0330 -2.0339 0.9614
-9.3182 2.3977 -2.0338 0.9614
-9.4964 1.5473 -2.0338 0.9614
-9.5973 0.6843 -2.0338 0.9614
-9.4301 -1.9097 -2.0338 0.9614
-9.2193 -2.7526 -2.0338 0.9614
-8.9334 -3.5730 -2.0338 0.9614
-8.5747 -4.3643 -2.0338 0.9614
-8.1460 -5.1200 -2.0338 0.9614
-7.6509 -5.8340 -2.0338 0.9614
-7.0934 -6.5004 -2.0338 0.9614
-7.4979 4.3213 -2.0339 0.9651
-8.3808 2.1564 -2.0339 0.9651
-8.6318 0.6155 -2.0338 0.9651
-8.6521 -0.1657 -2.0338 0.9651
-8.2919 -2.4757 -2.0338 0.9651
-8.0348 -3.2136 -2.0338 0.9651
-7.7121 -3.9253 -2.0338 0.9651
-5.8265 -6.3981 -2.0338 0.9651
-5.2255 -6.8976 -2.0338 0.9651
-6.8059 3.9225 -2.0339 0.9681
-7.1320 3.2925 -2.0339 0.9681
-7.3999 2.6357 -2.0339 0.9681
-7.6074 1.9574 -2.0339 0.9681
-7.8352 0.5587 -2.0338 0.9681
-7.8537 -0.1504 -2.0338 0.9681
-7.8080 -0.8583 -2.0338 0.9681
-7.6988 -1.5591 -2.0338 0.9681
-7.5267 -2.2472 -2.0338 0.9681
-7.2933 -2.9171 -2.0338 0.9681
-6.6504 -4.1800 -2.0338 0.9681
-6.2462 -4.7629 -2.0338 0.9681
-5.7912 -5.3070 -2.0338 0.9681
-5.2888 -5.8077 -2.0338 0.9681
-4.7433 -6.2611 -2.0338 0.9681
-4.1592 -6.6635 -2.0338 0.9681
-6.2247 3.5875 -2.0339 0.9706
-6.5229 3.0113 -2.0339 0.9706
-6.9578 1.7903 -2.0339 0.9706
-7.1661 0.5110 -2.0338 0.9706
-7.1830 -0.1376 -2.0338 0.9706
-7.1413 -0.7850 -2.0338 0.9706
-6.4027 -3.2588 -2.0338 0.9706
-6.0826 -3.8231 -2.0338 0.9706
-5.7129 -4.3562 -2.0338 0.9706
-5.2966 -4.8537 -2.0338 0.9706
-4.8372 -5.3118 -2.0338 0.9706
-5.7291 3.3020 -2.0339 0.9727
-6.4039 1.6478 -2.0339 0.9727
-6.5264 1.0634 -2.0339 0.9727
-6.6112 -0.1266 -2.0338 0.9727
-6.3360 -1.8917 -2.0338 0.9727
-5.2581 -4.0094 -2.0338 0.9727
-3.9929 -5.2706 -2.0338 0.9727
-3.5012 -5.6093 -2.0338 0.9727
-5.3012 3.0553 -2.0339 0.9745
-6.0389 0.9839 -2.0339 0.9745
-6.1031 0.4352 -2.0339 0.9745
-6.0819 -0.6685 -2.0338 0.9745
-5.8628 -1.7504 -2.0338 0.9745
-5.6810 -2.2722 -2.0338 0.9745
-5.4528 -2.7754 -2.0338 0.9745
-5.1803 -3.2559 -2.0338 0.9745
-4.8654 -3.7100 -2.0338 0.9745
-4.1196 -4.5238 -2.0338 0.9745
-3.6947 -4.8770 -2.0338 0.9745
-3.2397 -5.1904 -2.0338 0.9745
-5.3577 1.9084 -2.0339 0.9761
-5.6730 0.4045 -2.0339 0.9761
-5.6533 -0.6214 -2.0338 0.9761
-5.2806 -2.1121 -2.0338 0.9761
-5.0686 -2.5798 -2.0338 0.9761
-4.8152 -3.0265 -2.0338 0.9761
-4.5225 -3.4485 -2.0338 0.9761
-4.1930 -3.8424 -2.0338 0.9761
-3.4343 -4.5333 -2.0338 0.9761
-3.0114 -4.8246 -2.0338 0.9761
-4.8186 2.2246 -2.0339 0.9775
-5.1399 1.3226 -2.0339 0.9775
-5.2939 0.3774 -2.0339 0.9775
-5.2755 -0.5799 -2.0338 0.9775
-5.2017 -1.0534 -2.0338 0.9775
-5.0854 -1.5183 -2.0338 0.9775
-4.9277 -1.9709 -2.0338 0.9775
-4.4934 -2.8242 -2.0338 0.9775
-4.2203 -3.2181 -2.0338 0.9775
-3.9128 -3.5856 -2.0338 0.9775
-3.2048 -4.2303 -2.0338 0.9775
-4.5118 2.0829 -2.0339 0.9788
-2.2018 0.5665 -0.9305 0.9902
-2.1200 0.1511 -0.8699 0.9909
-2.1118 -0.2322 -0.8695 0.9909
-2.1218 -0.4297 -0.8860 0.9907
-3.9516 -3.0132 -2.0338 0.9788
-3.3459 -3.6742 -2.0338 0.9788
-3.0008 -3.9610 -2.0338 0.9788
-4.2371 1.9561 -2.0339 0.9798
-1.9345 0.4977 -0.8706 0.9913
-1.9048 0.3103 -0.8411 0.9916
-1.9158 0.1366 -0.8371 0.9917
-1.9188 -0.0368 -0.8364 0.9917
-1.9084 -0.2098 -0.8367 0.9917
-2.0536 -0.6132 -0.9340 0.9907
-3.9511 -2.4834 -2.0338 0.9798
-2.8181 -3.7198 -2.0338 0.9798
-1.5704 0.4040 -0.7506 0.9929
-1.6109 0.2624 -0.7555 0.9928
-1.6000 0.1141 -0.7425 0.9930
-1.6085 -0.1768 -0.7490 0.9929
-1.5997 -0.3240 -0.7555 0.9928
-4.0796 -1.6317 -2.0338 0.9808
-3.4939 -2.6642 -2.0338 0.9808
-3.2394 -2.9685 -2.0338 0.9808
-2.6533 -3.5023 -2.0338 0.9808
-3.7645 1.7379 -2.0339 0.9817
-1.3522 0.0964 -0.6650 0.9940
-1.3417 -0.0257 -0.6583 0.9940
-1.3532 -0.1488 -0.6678 0.9940
-1.3333 -0.2700 -0.6673 0.9940
-3.0568 -2.8013 -2.0338 0.9817
-2.1954 -3.5173 -2.0338 0.9817
-3.3968 1.9577 -2.0339 0.9825
-1.1335 0.4037 -0.6242 0.9946
-1.1641 0.2995 -0.6236 0.9946
-1.1911 0.1940 -0.6261 0.9946
-1.2002 0.0855 -0.6242 0.9946
-1.1998 -0.1319 -0.6262 0.9946
-3.3192 -2.0863 -2.0338 0.9825
-2.6396 -2.8987 -2.0338 0.9825
-2.3674 -3.1249 -2.0338 0.9825
-2.0759 -3.3258 -2.0338 0.9825
-0.9942 0.4589 -0.5997 0.9950
-1.0247 0.3649 -0.5958 0.9951
-1.0427 0.2683 -0.5897 0.9951
-1.0693 0.1742 -0.5934 0.9951
-1.0784 -0.0207 -0.5908 0.9951
-1.0782 -0.1186 -0.5941 0.9951
-1.0593 -0.2146 -0.5919 0.9951
-1.0359 -0.3093 -0.5921 0.9951
-0.9800 -0.4989 -0.6023 0.9950
-3.1440 -1.9761 -2.0339 0.9832
-2.9529 -2.2516 -2.0338 0.9832
-2.7377 -2.5088 -2.0338 0.9832
-2.2424 -2.9600 -2.0338 0.9832
-1.9662 -3.1502 -2.0338 0.9832
-0.9226 0.4259 -0.5867 0.9953
-0.9616 0.2474 -0.5733 0.9954
-0.9897 -0.0190 -0.5715 0.9954
-0.9872 -0.1086 -0.5734 0.9954
-0.9102 -0.4633 -0.5897 0.9953
-2.9825 -1.8746 -2.0339 0.9839
-2.1272 -2.8080 -2.0339 0.9839
-1.8653 -2.9884 -2.0339 0.9839
