ply
format ascii 1.0
element vertex 194
property float32 x
property float32 y
property float32 z
property float32 I
end_header
1.9386 18.9172 3.3531 0.9257
1.8139 17.7001 2.7258 0.9305
-11.4217 13.4519 2.7034 0.9311
-12.2706 12.0728 2.6371 0.9327
1.7995 17.5603 2.2987 0.9313
-11.1932 13.1826 2.2520 0.9326
1.8290 17.8478 1.9266 0.9304
-11.1385 13.1182 1.8479 0.9331
1.9021 18.5612 1.5795 0.9278
-11.4392 13.4724 1.4961 0.9315
1.7971 17.5370 1.0932 0.9318
2.0337 19.8454 0.3370 0.9233
-1.9850 7.5797 -0.5745 0.9691
-16.2587 5.5590 -1.2599 0.9334
-1.9502 7.4463 -0.7390 0.9695
-16.1007 5.5050 -1.6336 0.9339
0.2150 17.1227 -2.0341 0.9333
-1.2645 7.5204 -0.9059 0.9697
-12.2055 12.0087 -2.0339 0.9334
-14.1496 9.6417 -2.0339 0.9334
-15.6407 6.9662 -2.0338 0.9334
-16.2009 5.5392 -2.0338 0.9334
1.4635 14.2811 -2.0341 0.9437
-1.9246 7.3487 -1.0764 0.9698
-4.8644 13.5061 -2.0340 0.9437
-8.2752 11.7298 -2.0340 0.9437
-13.1125 5.8402 -2.0339 0.9437
-13.5822 4.6438 -2.0338 0.9437
1.2587 12.2827 -2.0340 0.9512
-0.5816 7.5373 -1.2454 0.9698
-1.8518 7.0708 -1.2041 0.9708
-2.6991 7.4940 -1.3122 0.9682
-7.9911 9.4114 -2.0339 0.9512
-10.7835 6.0117 -2.0339 0.9512
-11.2779 5.0230 -2.0339 0.9512
-12.2064 1.8488 -2.0338 0.9512
1.1033 10.7652 -2.0340 0.9569
-1.2243 7.2815 -1.3879 0.9704
-1.8400 7.0257 -1.3651 0.9709
-2.6764 7.4309 -1.4846 0.9684
-6.2380 8.8422 -2.0339 0.9569
-7.0039 8.2487 -2.0339 0.9569
-8.9421 6.0933 -2.0339 0.9569
-9.4513 5.2690 -2.0339 0.9569
-10.6984 1.6204 -2.0338 0.9569
0.9810 9.5724 -2.0340 0.9614
0.1208 9.6218 -2.0340 0.9614
-0.5714 7.4050 -1.5699 0.9701
-1.9041 7.2706 -1.5887 0.9697
-3.2606 9.0531 -2.0340 0.9614
-4.0573 8.7251 -2.0340 0.9614
-5.5469 7.8625 -2.0339 0.9614
-6.2279 7.3348 -2.0339 0.9614
-6.8589 6.7483 -2.0339 0.9614
-7.9514 5.4182 -2.0339 0.9614
-8.4042 4.6852 -2.0339 0.9614
-9.1043 3.1129 -2.0339 0.9614
-9.3462 2.2860 -2.0338 0.9614
-9.5132 1.4409 -2.0338 0.9614
0.1087 8.6538 -2.0340 0.9651
-0.5730 7.4257 -1.7504 0.9699
-1.2268 7.2966 -1.7390 0.9701
-1.8951 7.2362 -1.7580 0.9697
-4.3364 7.4895 -2.0339 0.9651
-4.9889 7.0715 -2.0339 0.9651
-5.6014 6.5969 -2.0339 0.9651
-6.6870 5.4933 -2.0339 0.9651
-7.1516 4.8731 -2.0339 0.9651
-7.5587 4.2139 -2.0339 0.9651
-7.9053 3.5209 -2.0339 0.9651
-8.1885 2.7997 -2.0339 0.9651
0.8009 7.8148 -2.0340 0.9681
-0.6044 7.8324 -2.0340 0.9681
-1.3025 7.7469 -2.0340 0.9681
-1.9902 7.5994 -2.0340 0.9681
-4.5284 6.4189 -2.0339 0.9681
-5.0844 5.9881 -2.0339 0.9681
-6.8612 3.8250 -2.0339 0.9681
-7.1757 3.1960 -2.0339 0.9681
-7.6303 1.8663 -2.0339 0.9681
-7.7666 1.1763 -2.0338 0.9681
-0.5527 7.1635 -2.0340 0.9706
-3.6000 6.2177 -2.0339 0.9706
-4.1417 5.8708 -2.0339 0.9706
-5.9372 4.0456 -2.0339 0.9706
-6.2752 3.4984 -2.0339 0.9706
-6.5629 2.9231 -2.0339 0.9706
-6.9787 1.7069 -2.0339 0.9706
0.6741 6.5784 -2.0340 0.9727
0.0830 6.6123 -2.0340 0.9727
-0.5088 6.5932 -2.0340 0.9727
-2.2408 6.2215 -2.0340 0.9727
-2.7883 5.9962 -2.0339 0.9727
-4.2800 5.0408 -2.0339 0.9727
-5.1096 4.1975 -2.0339 0.9727
-5.4645 3.7236 -2.0339 0.9727
-6.0405 2.6904 -2.0339 0.9727
-6.2569 2.1393 -2.0339 0.9727
-6.4231 1.5710 -2.0339 0.9727
-6.5379 0.9902 -2.0339 0.9727
0.0768 6.1184 -2.0340 0.9745
-0.4707 6.1008 -2.0340 0.9745
-3.0659 5.2953 -2.0339 0.9745
-4.3617 4.2913 -2.0339 0.9745
-5.0564 3.4455 -2.0339 0.9745
-5.3443 2.9794 -2.0339 0.9745
-5.7896 1.9795 -2.0339 0.9745
-5.9434 1.4537 -2.0339 0.9745
-6.0496 0.9162 -2.0339 0.9745
0.0714 5.6872 -2.0340 0.9761
-0.9430 5.6089 -2.0340 0.9761
-1.4409 5.5021 -2.0339 0.9761
-1.9273 5.3511 -2.0339 0.9761
-2.3982 5.1573 -2.0339 0.9761
-3.2787 4.6475 -2.0339 0.9761
-3.6812 4.3356 -2.0339 0.9761
-4.3948 3.6103 -2.0339 0.9761
-5.3816 1.8400 -2.0339 0.9761
-5.5246 1.3512 -2.0339 0.9761
-5.6233 0.8517 -2.0339 0.9761
0.5411 5.2799 -2.0340 0.9775
0.0666 5.3072 -2.0340 0.9775
-0.4084 5.2918 -2.0340 0.9775
-0.8800 5.2341 -2.0340 0.9775
-1.3447 5.1344 -2.0339 0.9775
-3.0596 4.3369 -2.0339 0.9775
-3.4352 4.0458 -2.0339 0.9775
-4.6357 2.5843 -2.0339 0.9775
-4.8482 2.1593 -2.0339 0.9775
-5.0219 1.7170 -2.0339 0.9775
-5.1554 1.2610 -2.0339 0.9775
0.5066 4.9438 -2.0340 0.9787
0.0624 4.9693 -2.0340 0.9787
-0.8240 4.9008 -2.0339 0.9788
-1.6839 4.6756 -2.0339 0.9788
-2.0954 4.5062 -2.0339 0.9788
-2.4901 4.3007 -2.0339 0.9788
-3.2165 3.7882 -2.0339 0.9788
-3.8400 3.1545 -2.0339 0.9788
-4.5396 2.0219 -2.0339 0.9788
-2.1556 0.5272 -0.9082 0.9905
-2.1137 0.3201 -0.8750 0.9908
0.4757 4.6427 -2.0340 0.9798
-0.7738 4.6024 -2.0339 0.9798
-1.5814 4.3908 -2.0339 0.9798
-1.9678 4.2318 -2.0339 0.9798
-2.3384 4.0388 -2.0339 0.9798
-3.6061 2.9624 -2.0339 0.9798
-4.0762 2.2724 -2.0339 0.9798
-1.9041 0.2884 -0.8393 0.9916
-0.7285 4.3332 -2.0339 0.9808
-2.8439 3.3495 -2.0339 0.9808
-3.6311 2.4743 -2.0339 0.9808
-4.0138 1.7877 -2.0339 0.9808
-1.7327 0.5924 -0.8476 0.9920
-1.6104 0.2439 -0.7540 0.9928
0.4227 4.1249 -2.0340 0.9817
-0.3190 4.1342 -2.0339 0.9817
-1.0505 4.0112 -2.0339 0.9817
-1.4050 3.9011 -2.0339 0.9817
-1.7484 3.7598 -2.0339 0.9817
-2.9557 2.9080 -2.0339 0.9817
-3.2039 2.6320 -2.0339 0.9817
-3.4265 2.3348 -2.0339 0.9817
-3.7877 1.6870 -2.0339 0.9817
-1.2754 0.4360 -0.6612 0.9940
-1.3477 0.2041 -0.6686 0.9939
0.0492 3.9203 -2.0339 0.9825
-0.3016 3.9090 -2.0339 0.9825
-0.6500 3.8663 -2.0339 0.9825
-1.3285 3.6886 -2.0339 0.9825
-2.7946 2.7496 -2.0339 0.9825
-3.0294 2.4886 -2.0339 0.9825
-3.4243 1.9090 -2.0339 0.9825
-1.1054 0.4923 -0.6278 0.9946
-1.1369 0.3887 -0.6233 0.9946
-1.1938 0.1808 -0.6264 0.9946
-0.6157 3.6622 -2.0339 0.9832
-1.5658 3.3673 -2.0339 0.9832
-3.0688 2.0911 -2.0339 0.9832
-0.9988 0.4448 -0.5988 0.9950
-1.0461 0.2558 -0.5898 0.9951
-1.0717 0.1623 -0.5937 0.9951
0.0443 3.5226 -2.0339 0.9839
-0.5841 3.4741 -2.0339 0.9839
-0.8925 3.4079 -2.0339 0.9839
-1.1937 3.3144 -2.0339 0.9839
-2.0307 2.8786 -2.0339 0.9839
-2.2801 2.6854 -2.0339 0.9839
-2.7221 2.2362 -2.0339 0.9839
-0.9270 0.4128 -0.5859 0.9953
-0.9498 0.3247 -0.5795 0.9954
-0.9650 0.2360 -0.5736 0.9954
-0.9827 0.1488 -0.5739 0.9954
