ply
format ascii 1.0
element vertex 195
property float32 x
property float32 y
property float32 z
property float32 I
end_header
-11.8859 12.5215 2.6448 0.9325
-11.5191 12.1351 2.1788 0.9347
-4.2641 19.3119 1.2264 0.9238
-12.8316 13.5177 0.7349 0.9281
-17.5000 4.8316 -1.3311 0.9298
-0.9836 7.7042 -0.7456 0.9693
-5.1854 16.3195 -2.0340 0.9333
-8.0335 15.1217 -2.0340 0.9334
-9.3650 14.3352 -2.0340 0.9334
-10.6199 13.4317 -2.0340 0.9334
-11.7883 12.4187 -2.0339 0.9334
-16.5041 4.5566 -2.0338 0.9334
-17.0540 1.5166 -2.0338 0.9334
-17.1211 -0.0282 -2.0338 0.9334
-0.5257 14.3461 -2.0341 0.9437
-5.5637 13.2333 -2.0340 0.9437
-7.8511 12.0179 -2.0340 0.9437
-8.9032 11.2605 -2.0340 0.9437
-9.8827 10.4112 -2.0339 0.9437
-10.7816 9.4771 -2.0339 0.9437
-12.3089 7.3852 -2.0339 0.9437
-13.4355 5.0529 -2.0338 0.9437
-14.1245 2.5562 -2.0338 0.9437
-14.2975 1.2715 -2.0338 0.9437
-0.9437 7.3925 -1.2277 0.9702
-2.4560 7.7294 -1.3361 0.9677
-5.7925 10.9035 -2.0340 0.9512
-7.6575 9.6849 -2.0339 0.9512
-9.2731 8.1510 -2.0339 0.9512
-10.5868 6.3518 -2.0339 0.9512
-11.5557 4.3459 -2.0338 0.9512
-12.2971 1.0935 -2.0338 0.9512
-12.3455 -0.0203 -2.0338 0.9512
-1.5932 7.2153 -1.3889 0.9704
-2.2750 7.1599 -1.4121 0.9699
-6.7114 8.4884 -2.0339 0.9569
-7.4498 7.8482 -2.0339 0.9569
-8.1275 7.1440 -2.0339 0.9569
-9.2788 5.5671 -2.0339 0.9569
-9.7432 4.7072 -2.0339 0.9569
-10.1280 3.8090 -2.0339 0.9569
-10.6475 1.9270 -2.0338 0.9569
-10.8204 -0.0178 -2.0338 0.9569
-0.2862 7.8084 -1.6516 0.9686
-0.9219 7.2213 -1.5388 0.9707
-4.5144 8.4976 -2.0340 0.9614
-5.2626 8.0556 -2.0339 0.9614
-5.9679 7.5479 -2.0339 0.9614
-6.6245 6.9787 -2.0339 0.9614
-7.7706 5.6745 -2.0339 0.9614
-8.2508 4.9503 -2.0339 0.9614
-8.6637 4.1857 -2.0339 0.9614
-9.0060 3.3870 -2.0339 0.9614
-9.2748 2.5607 -2.0338 0.9614
-9.4679 1.7135 -2.0338 0.9614
-9.5839 0.8523 -2.0338 0.9614
-0.9303 7.2875 -1.7266 0.9703
-2.3225 7.3094 -1.8025 0.9690
-3.3542 7.9779 -2.0340 0.9651
-5.3675 6.7886 -2.0339 0.9651
-5.9580 6.2766 -2.0339 0.9651
-6.9889 5.1037 -2.0339 0.9651
-7.7921 3.7646 -2.0339 0.9651
-8.5155 1.5411 -2.0338 0.9651
-8.6197 0.7665 -2.0338 0.9651
-8.6537 -0.0143 -2.0338 0.9651
-0.9444 7.3976 -1.9309 0.9697
-1.6937 7.6709 -2.0340 0.9681
-3.6855 6.9374 -2.0339 0.9681
-4.2964 6.5765 -2.0339 0.9681
-4.8721 6.1621 -2.0339 0.9681
-5.9001 5.1862 -2.0339 0.9681
-6.3439 4.6327 -2.0339 0.9681
-6.7359 4.0414 -2.0339 0.9681
-7.0730 3.4172 -2.0339 0.9681
-7.8243 0.6958 -2.0338 0.9681
-7.8551 -0.0129 -2.0338 0.9681
-0.2631 7.1800 -2.0340 0.9706
-0.9098 7.1270 -2.0340 0.9706
-1.5491 7.0158 -2.0340 0.9706
-2.1757 6.8474 -2.0340 0.9706
-4.9463 5.2108 -2.0339 0.9706
-6.7246 2.5290 -2.0339 0.9706
-7.0695 1.2794 -2.0339 0.9706
-7.1561 0.6364 -2.0338 0.9706
-7.1843 -0.0118 -2.0338 0.9706
-2.0025 6.3023 -2.0340 0.9727
-2.5629 6.0959 -2.0339 0.9727
-3.1024 5.8398 -2.0339 0.9727
-3.6166 5.5361 -2.0339 0.9727
-4.1013 5.1872 -2.0339 0.9727
-4.5526 4.7960 -2.0339 0.9727
-4.9667 4.3657 -2.0339 0.9727
-5.3403 3.8998 -2.0339 0.9727
-5.6703 3.4021 -2.0339 0.9727
-6.1893 2.3277 -2.0339 0.9727
-6.5865 0.5857 -2.0339 0.9727
-0.2241 6.1148 -2.0340 0.9745
-2.3715 5.6406 -2.0339 0.9745
-2.8707 5.4036 -2.0339 0.9745
-3.7950 4.7997 -2.0339 0.9745
-4.9414 3.6085 -2.0339 0.9745
-5.5094 2.6618 -2.0339 0.9745
-0.2083 5.6839 -2.0340 0.9761
-0.7202 5.6419 -2.0340 0.9761
-4.8770 2.9261 -2.0339 0.9761
-5.3234 2.0021 -2.0339 0.9761
-5.4823 1.5136 -2.0339 0.9761
-5.5965 1.0128 -2.0339 0.9761
-5.6650 0.5038 -2.0339 0.9761
-5.6873 -0.0094 -2.0339 0.9761
-0.1943 5.3040 -2.0340 0.9775
-0.6721 5.2648 -2.0340 0.9775
-1.1443 5.1827 -2.0339 0.9775
-1.6072 5.0583 -2.0339 0.9775
-2.9028 4.4433 -2.0339 0.9775
-3.6539 3.8494 -2.0339 0.9775
-4.2862 3.1300 -2.0339 0.9775
-4.5511 2.7306 -2.0339 0.9775
-4.7788 2.3088 -2.0339 0.9775
-5.1159 1.4125 -2.0339 0.9775
-5.3073 -0.0088 -2.0339 0.9775
-0.6293 4.9296 -2.0340 0.9788
-1.9261 4.5811 -2.0339 0.9788
-2.3315 4.3887 -2.0339 0.9788
-3.4213 3.6043 -2.0339 0.9788
-3.7325 3.2809 -2.0339 0.9788
-4.2614 2.5567 -2.0339 0.9788
-4.4746 2.1619 -2.0339 0.9788
-4.7902 1.3225 -2.0339 0.9788
-2.1169 0.1882 -0.8698 0.9909
-2.1211 -0.0035 -0.8681 0.9909
-0.1709 4.6638 -2.0340 0.9798
-1.0062 4.5572 -2.0339 0.9798
-1.4133 4.4478 -2.0339 0.9798
-1.8087 4.3021 -2.0339 0.9798
-2.5524 3.9071 -2.0339 0.9798
-3.5052 3.0811 -2.0339 0.9798
-3.7689 2.7523 -2.0339 0.9798
-4.2021 2.0302 -2.0339 0.9798
-4.3681 1.6428 -2.0339 0.9798
-1.9877 0.5487 -0.8987 0.9910
-0.5564 4.3587 -2.0339 0.9808
-1.3306 4.1877 -2.0339 0.9808
-1.7030 4.0506 -2.0339 0.9808
-2.0615 3.8804 -2.0339 0.9808
-3.0251 3.1868 -2.0339 0.9808
-3.3003 2.9009 -2.0339 0.9808
-3.5485 2.5913 -2.0339 0.9808
-3.7678 2.2606 -2.0339 0.9808
-3.9564 1.9115 -2.0339 0.9808
-1.6075 0.2909 -0.7562 0.9928
-1.5665 -0.0026 -0.7251 0.9931
-0.5251 4.1131 -2.0339 0.9817
-0.8940 4.0489 -2.0339 0.9817
-1.6071 3.8223 -2.0339 0.9817
-2.5717 3.2526 -2.0339 0.9817
-3.1143 2.7374 -2.0339 0.9817
-3.5555 2.1332 -2.0339 0.9817
-1.2591 0.4735 -0.6599 0.9940
-1.3063 0.3606 -0.6648 0.9940
-1.3400 0.2425 -0.6680 0.9940
-1.3350 -0.0022 -0.6549 0.9941
-0.1436 3.9180 -2.0339 0.9825
-0.4964 3.8890 -2.0339 0.9825
-0.8453 3.8284 -2.0339 0.9825
-1.1873 3.7365 -2.0339 0.9825
-1.5195 3.6141 -2.0339 0.9825
-1.8394 3.4623 -2.0339 0.9825
-2.1443 3.2822 -2.0339 0.9825
-2.9446 2.5884 -2.0339 0.9825
-3.1662 2.3121 -2.0339 0.9825
-3.3618 2.0171 -2.0339 0.9825
-1.1282 0.4243 -0.6253 0.9946
-1.1862 0.2146 -0.6254 0.9946
-0.1360 3.7111 -2.0339 0.9832
-0.4702 3.6837 -2.0339 0.9832
-1.1245 3.5392 -2.0339 0.9832
-1.4393 3.4233 -2.0339 0.9832
-2.0310 3.1089 -2.0339 0.9832
-2.3032 2.9130 -2.0339 0.9832
-0.9877 0.4772 -0.6008 0.9950
-1.0197 0.3835 -0.5967 0.9950
-1.0389 0.2868 -0.5903 0.9951
-1.0651 0.1927 -0.5928 0.9951
-1.0759 -0.0018 -0.5893 0.9951
-0.1290 3.5205 -2.0339 0.9839
-0.4461 3.4945 -2.0339 0.9839
-1.6528 3.1111 -2.0339 0.9839
-1.9267 2.9493 -2.0339 0.9839
-2.1849 2.7634 -2.0339 0.9839
-2.8450 2.0776 -2.0339 0.9839
-0.9170 0.4430 -0.5880 0.9953
-0.9433 0.3547 -0.5819 0.9954
-0.9887 0.0879 -0.5731 0.9954
