ply
format ascii 1.0
element vertex 204
property float32 x
property float32 y
property float32 z
property float32 I
end_header
2.5175 18.2237 2.3956 0.9285
0.8810 18.5389 2.4169 0.9279
2.4193 17.5126 1.8984 0.9313
2.5659 18.5742 1.5873 0.9275
2.3950 17.3366 1.0853 0.9323
2.5147 18.2035 0.7246 0.9291
2.4625 17.8252 0.3040 0.9305
4.1763 18.0752 -0.1044 0.9285
15.2693 9.0621 -1.3019 0.9313
16.8580 3.0059 -2.0341 0.9333
13.2843 9.5926 -1.9464 0.9361
11.8693 12.3436 -2.0341 0.9333
10.7146 13.3582 -2.0341 0.9333
9.4736 14.2652 -2.0341 0.9333
5.3356 16.2718 -2.0341 0.9333
3.8550 16.6847 -2.0341 0.9333
2.3434 16.9631 -2.0341 0.9333
0.8129 17.1047 -2.0341 0.9333
14.3555 -0.0448 -2.0340 0.9437
14.3018 1.2426 -2.0340 0.9437
14.1328 2.5200 -2.0340 0.9437
12.3455 7.3269 -2.0341 0.9437
11.6388 8.4044 -2.0341 0.9437
9.9505 10.3482 -2.0341 0.9437
8.9825 11.1987 -2.0341 0.9437
6.8378 12.6230 -2.0341 0.9437
5.6783 13.1853 -2.0341 0.9437
4.4731 13.6413 -2.0341 0.9437
12.1553 2.1674 -2.0340 0.9512
11.9120 3.2486 -2.0340 0.9512
11.5727 4.3037 -2.0340 0.9512
11.1403 5.3241 -2.0341 0.9512
9.3217 8.0969 -2.0341 0.9512
8.5581 8.9001 -2.0341 0.9512
6.8308 10.2857 -2.0341 0.9512
4.8837 11.3403 -2.0341 0.9512
2.7796 12.0302 -2.0341 0.9512
1.6897 12.2309 -2.0341 0.9512
10.8213 -0.0338 -2.0340 0.9569
10.7808 0.9366 -2.0340 0.9569
10.6534 1.8996 -2.0340 0.9569
10.1429 3.7720 -2.0340 0.9569
9.3061 5.5230 -2.0340 0.9569
7.5007 7.8005 -2.0341 0.9569
5.1543 9.5153 -2.0341 0.9569
4.2804 9.9391 -2.0340 0.9569
3.3719 10.2829 -2.0340 0.9569
1.4809 10.7198 -2.0340 0.9569
0.5137 10.8093 -2.0340 0.9569
9.6224 -0.0301 -2.0340 0.9614
9.4731 1.6892 -2.0340 0.9614
8.6820 4.1493 -2.0340 0.9614
8.2750 4.9111 -2.0340 0.9614
7.8013 5.6333 -2.0340 0.9614
6.0208 7.5063 -2.0340 0.9614
5.3235 8.0160 -2.0340 0.9614
2.9982 9.1436 -2.0340 0.9614
0.4568 9.6117 -2.0340 0.9614
8.6219 0.7491 -2.0340 0.9651
8.5200 1.5192 -2.0340 0.9651
8.3495 2.2771 -2.0340 0.9651
7.4425 4.4170 -2.0340 0.9651
6.5339 5.6754 -2.0340 0.9651
5.9986 6.2384 -2.0340 0.9651
5.4151 6.7512 -2.0340 0.9651
4.1221 7.6098 -2.0340 0.9651
3.4232 7.9488 -2.0340 0.9651
7.7337 1.3790 -2.0340 0.9681
6.7557 4.0094 -2.0340 0.9681
5.9309 5.1516 -2.0340 0.9681
5.4450 5.6626 -2.0340 0.9681
4.3460 6.5441 -2.0340 0.9681
3.1073 7.2152 -2.0340 0.9681
1.7685 7.6541 -2.0340 0.9681
1.0750 7.7819 -2.0340 0.9681
0.3729 7.8469 -2.0340 0.9681
7.1848 -0.0225 -2.0340 0.9706
7.1579 0.6219 -2.0340 0.9706
6.4826 3.0981 -2.0340 0.9706
6.1787 3.6670 -2.0340 0.9706
5.4244 4.7116 -2.0340 0.9706
4.4956 5.6047 -2.0340 0.9706
3.9748 5.9852 -2.0340 0.9706
3.4221 6.3176 -2.0340 0.9706
2.2387 6.8272 -2.0340 0.9706
1.6175 7.0004 -2.0340 0.9706
0.3411 7.1768 -2.0340 0.9706
6.6128 -0.0207 -2.0340 0.9727
6.5880 0.5724 -2.0340 0.9727
6.5102 1.1608 -2.0340 0.9727
6.3799 1.7399 -2.0340 0.9727
6.1982 2.3050 -2.0340 0.9727
5.9665 2.8515 -2.0340 0.9727
4.9925 4.3365 -2.0340 0.9727
4.1377 5.1585 -2.0340 0.9727
3.6584 5.5088 -2.0340 0.9727
3.1497 5.8146 -2.0340 0.9727
2.6156 6.0736 -2.0340 0.9727
1.4887 6.4431 -2.0340 0.9727
0.9049 6.5506 -2.0340 0.9727
0.3139 6.6054 -2.0340 0.9727
6.1189 -0.0191 -2.0340 0.9745
6.0960 0.5296 -2.0340 0.9745
5.9033 1.6099 -2.0340 0.9745
5.5209 2.6385 -2.0340 0.9745
4.6196 4.0126 -2.0340 0.9745
3.8286 4.7733 -2.0340 0.9745
2.9145 5.3803 -2.0340 0.9745
2.4203 5.6200 -2.0340 0.9745
1.9066 5.8144 -2.0340 0.9745
0.8373 6.0614 -2.0340 0.9745
0.2904 6.1120 -2.0340 0.9745
5.4873 1.4965 -2.0340 0.9761
5.3311 1.9825 -2.0340 0.9761
5.1318 2.4526 -2.0340 0.9761
3.9423 4.0998 -2.0340 0.9761
2.7091 5.0011 -2.0340 0.9761
2.2497 5.2239 -2.0340 0.9761
0.7783 5.6342 -2.0340 0.9761
0.2700 5.6813 -2.0340 0.9761
5.2877 0.4594 -2.0340 0.9775
5.2252 0.9317 -2.0340 0.9775
4.5643 2.7088 -2.0340 0.9775
4.3030 3.1072 -2.0340 0.9775
4.0071 3.4805 -2.0340 0.9775
3.6788 3.8258 -2.0340 0.9775
3.3210 4.1403 -2.0340 0.9775
2.9363 4.4214 -2.0340 0.9775
2.0993 4.8748 -2.0340 0.9775
1.6537 5.0434 -2.0340 0.9775
1.1948 5.1713 -2.0340 0.9775
4.9696 -0.0155 -2.0339 0.9788
4.8925 0.8723 -2.0340 0.9787
4.7946 1.3076 -2.0340 0.9787
4.4839 2.1429 -2.0340 0.9787
4.2737 2.5364 -2.0340 0.9787
3.7519 3.2589 -2.0340 0.9787
3.1095 3.8767 -2.0340 0.9787
2.7493 4.1399 -2.0340 0.9787
1.9657 4.5644 -2.0340 0.9787
1.5484 4.7223 -2.0340 0.9787
4.6670 -0.0146 -2.0339 0.9798
4.3743 1.6267 -2.0340 0.9798
4.0134 2.3819 -2.0340 0.9798
3.5235 3.0605 -2.0340 0.9798
3.2348 3.3641 -2.0340 0.9798
2.9201 3.6406 -2.0340 0.9798
2.5819 3.8878 -2.0340 0.9798
1.4541 4.4346 -2.0340 0.9798
1.0507 4.5472 -2.0340 0.9798
0.6387 4.6231 -2.0340 0.9798
0.2215 4.6617 -2.0340 0.9798
4.3776 0.3803 -2.0339 0.9808
4.3258 0.7713 -2.0339 0.9808
4.2393 1.1561 -2.0339 0.9808
4.1186 1.5316 -2.0340 0.9808
3.9646 1.8947 -2.0340 0.9808
3.7787 2.2426 -2.0340 0.9808
3.0457 3.1673 -2.0340 0.9808
2.4309 3.6604 -2.0340 0.9808
2.0929 3.8637 -2.0340 0.9808
1.7380 4.0358 -2.0340 0.9808
4.1309 0.3589 -2.0339 0.9817
4.0821 0.7279 -2.0339 0.9817
4.0004 1.0910 -2.0339 0.9817
3.8864 1.4453 -2.0340 0.9817
3.5658 2.1163 -2.0340 0.9817
3.3617 2.4275 -2.0340 0.9817
2.8740 2.9889 -2.0340 0.9817
2.5945 3.2346 -2.0340 0.9817
1.9750 3.6459 -2.0340 0.9817
1.2920 3.9401 -2.0340 0.9817
0.9335 4.0400 -2.0340 0.9817
0.5675 4.1075 -2.0340 0.9817
2.0748 0.1803 -1.0804 0.9907
2.1037 0.3751 -1.1086 0.9904
3.7825 1.0316 -2.0339 0.9825
3.6748 1.3666 -2.0339 0.9825
3.3716 2.0010 -2.0340 0.9825
2.7175 2.8261 -2.0340 0.9825
2.4532 3.0584 -2.0340 0.9825
1.5507 3.6009 -2.0340 0.9825
0.8826 3.8200 -2.0340 0.9825
1.8504 -0.0058 -1.0135 0.9916
1.8636 0.5082 -1.0580 0.9912
3.4807 1.2944 -2.0339 0.9832
3.3506 1.6013 -2.0339 0.9832
2.8036 2.4352 -2.0340 0.9832
2.5740 2.6768 -2.0340 0.9832
2.3236 2.8969 -2.0340 0.9832
2.0545 3.0935 -2.0340 0.9832
1.7688 3.2653 -2.0340 0.9832
0.8360 3.6182 -2.0339 0.9832
1.7245 -0.0054 -0.9957 0.9921
1.7215 0.1496 -0.9977 0.9921
1.7141 0.3056 -1.0052 0.9920
1.7197 0.6395 -1.0593 0.9916
3.1786 1.5191 -2.0339 0.9839
3.0295 1.7980 -2.0339 0.9839
2.6596 2.3102 -2.0339 0.9839
2.2043 2.7481 -2.0340 0.9839
1.3934 3.2356 -2.0339 0.9839
1.0977 3.3475 -2.0339 0.9839
0.4821 3.4897 -2.0339 0.9839
