ply
format ascii 1.0
element vertex 187
property float32 x
property float32 y
property float32 z
property float32 I
end_header
2.0621 18.4113 3.2667 0.9275
1.9868 17.7385 2.7344 0.9303
1.9432 17.3511 2.2736 0.9320
2.0328 18.1500 1.9612 0.9292
3.5661 17.6596 1.5251 0.9302
3.6066 17.8602 1.1299 0.9296
3.6596 18.1225 0.7290 0.9287
2.0626 18.4164 0.3130 0.9285
2.0429 18.2403 -0.1033 0.9292
2.1853 19.5114 -0.5528 0.9244
13.6009 8.9503 -1.1938 0.9368
17.0972 0.9529 -2.0341 0.9333
16.9481 2.4472 -2.0341 0.9333
16.2609 5.3680 -2.0341 0.9333
15.7282 6.7720 -2.0341 0.9333
14.3048 9.4135 -2.0341 0.9333
13.4252 10.6306 -2.0341 0.9333
12.4422 11.7659 -2.0341 0.9333
11.3635 12.8108 -2.0341 0.9333
7.6396 15.3256 -2.0341 0.9333
6.2675 15.9362 -2.0341 0.9333
3.3896 16.7854 -2.0341 0.9333
1.9060 17.0177 -2.0341 0.9333
14.3334 0.7989 -2.0340 0.9437
14.2083 2.0516 -2.0340 0.9437
13.9740 3.2886 -2.0341 0.9437
13.6322 4.5002 -2.0341 0.9437
11.2548 8.9120 -2.0341 0.9437
9.5265 10.7398 -2.0341 0.9437
7.5056 12.2378 -2.0341 0.9437
2.8416 14.0719 -2.0341 0.9437
1.5979 14.2667 -2.0341 0.9437
12.0187 2.8284 -2.0340 0.9512
11.7247 3.8705 -2.0340 0.9512
11.3406 4.8829 -2.0341 0.9512
10.3143 6.7874 -2.0341 0.9512
9.6800 7.6650 -2.0341 0.9512
8.1934 9.2370 -2.0341 0.9512
6.4554 10.5253 -2.0341 0.9512
3.4950 11.8422 -2.0341 0.9512
1.3743 12.2704 -2.0340 0.9512
10.8046 0.6022 -2.0340 0.9569
10.7104 1.5465 -2.0340 0.9569
10.5337 2.4789 -2.0340 0.9569
9.9394 4.2796 -2.0340 0.9569
9.5263 5.1339 -2.0340 0.9569
9.0399 5.9488 -2.0340 0.9569
6.4442 8.6937 -2.0341 0.9569
5.6577 9.2249 -2.0341 0.9569
3.9607 10.0707 -2.0340 0.9569
1.2045 10.7543 -2.0340 0.9569
9.6075 0.5355 -2.0340 0.9614
8.8382 3.8054 -2.0340 0.9614
6.9916 6.6116 -2.0340 0.9614
4.2929 8.6120 -2.0340 0.9614
3.5219 8.9550 -2.0340 0.9614
1.0710 9.5628 -2.0340 0.9614
8.4243 1.9825 -2.0340 0.9651
8.2183 2.7129 -2.0340 0.9651
7.9490 3.4226 -2.0340 0.9651
7.2296 4.7575 -2.0340 0.9651
6.7850 5.3726 -2.0340 0.9651
4.5248 7.3775 -2.0340 0.9651
3.1675 8.0540 -2.0340 0.9651
1.7131 8.4833 -2.0340 0.9651
7.8435 0.4372 -2.0340 0.9681
7.7751 1.1227 -2.0340 0.9681
7.4598 2.4626 -2.0340 0.9681
7.2154 3.1067 -2.0340 0.9681
5.2130 5.8769 -2.0340 0.9681
4.1072 6.6966 -2.0340 0.9681
2.8752 7.3107 -2.0340 0.9681
0.8744 7.8069 -2.0340 0.9681
7.1737 0.3998 -2.0340 0.9706
7.1111 1.0268 -2.0340 0.9706
6.9938 1.6459 -2.0340 0.9706
6.8227 2.2523 -2.0340 0.9706
6.3249 3.4086 -2.0340 0.9706
5.2204 4.9367 -2.0340 0.9706
2.0338 6.8911 -2.0340 0.9706
6.6026 0.3680 -2.0340 0.9727
6.5450 0.9451 -2.0340 0.9727
6.4370 1.5148 -2.0340 0.9727
6.0738 2.6152 -2.0340 0.9727
5.8214 3.1372 -2.0340 0.9727
5.5241 3.6352 -2.0340 0.9727
4.8048 4.5436 -2.0340 0.9727
4.3882 4.9471 -2.0340 0.9727
2.9502 5.9184 -2.0340 0.9727
2.4203 6.1540 -2.0340 0.9727
1.8718 6.3424 -2.0340 0.9727
1.3090 6.4821 -2.0340 0.9727
6.1095 0.3405 -2.0340 0.9745
5.9562 1.4017 -2.0340 0.9745
5.8105 1.9181 -2.0340 0.9745
5.3866 2.9029 -2.0340 0.9745
5.1115 3.3637 -2.0340 0.9745
4.0605 4.5776 -2.0340 0.9745
3.6438 4.9158 -2.0340 0.9745
2.2395 5.6944 -2.0340 0.9745
1.7320 5.8687 -2.0340 0.9745
1.2112 5.9979 -2.0340 0.9745
5.6789 0.3165 -2.0340 0.9761
5.5364 1.3029 -2.0340 0.9761
5.4011 1.7829 -2.0340 0.9761
5.2241 2.2493 -2.0340 0.9761
5.0069 2.6983 -2.0340 0.9761
4.4591 3.5309 -2.0340 0.9761
4.1326 3.9079 -2.0340 0.9761
3.7743 4.2550 -2.0340 0.9761
2.5374 5.0904 -2.0340 0.9761
2.0817 5.2931 -2.0340 0.9761
1.6100 5.4551 -2.0340 0.9761
5.2993 0.2954 -2.0339 0.9775
5.2531 0.7585 -2.0340 0.9775
4.8750 2.0989 -2.0340 0.9775
4.4337 2.9177 -2.0340 0.9775
3.8564 3.6468 -2.0340 0.9775
3.1607 4.2639 -2.0340 0.9775
2.7749 4.5244 -2.0340 0.9775
1.9426 4.9393 -2.0340 0.9775
1.5024 5.0905 -2.0340 0.9775
4.8375 1.1384 -2.0340 0.9787
4.3748 2.3577 -2.0340 0.9787
4.1514 2.7319 -2.0340 0.9787
3.8961 3.0851 -2.0340 0.9787
3.2978 3.7178 -2.0340 0.9787
2.9595 3.9925 -2.0340 0.9787
2.5983 4.2364 -2.0340 0.9787
2.2171 4.4477 -2.0340 0.9787
1.4067 4.7664 -2.0340 0.9787
0.9837 4.8713 -2.0340 0.9787
0.5532 4.9388 -2.0340 0.9787
4.6191 0.6669 -2.0339 0.9798
4.5429 1.0691 -2.0340 0.9798
4.2866 1.8456 -2.0340 0.9798
3.8986 2.5655 -2.0340 0.9798
2.7792 3.7493 -2.0340 0.9798
2.4400 3.9784 -2.0340 0.9798
1.7081 4.3432 -2.0340 0.9798
1.3211 4.4761 -2.0340 0.9798
0.9237 4.5746 -2.0340 0.9798
4.3873 0.2445 -2.0339 0.9808
4.2772 1.0066 -2.0339 0.9808
4.1726 1.3774 -2.0340 0.9808
4.0359 1.7377 -2.0340 0.9808
3.8681 2.0846 -2.0340 0.9808
3.6706 2.4155 -2.0340 0.9808
3.4449 2.7278 -2.0340 0.9808
3.1927 3.0191 -2.0340 0.9808
2.6166 3.5300 -2.0340 0.9808
1.9603 3.9326 -2.0340 0.9808
0.8698 4.3071 -2.0340 0.9808
4.1400 0.2307 -2.0339 0.9817
4.1039 0.5926 -2.0339 0.9817
3.9375 1.2998 -2.0339 0.9817
3.8085 1.6398 -2.0340 0.9817
3.4638 2.2794 -2.0340 0.9817
3.2507 2.5741 -2.0340 0.9817
3.0128 2.8490 -2.0340 0.9817
2.7516 3.1020 -2.0340 0.9817
2.1679 3.5346 -2.0340 0.9817
1.5176 3.8588 -2.0340 0.9817
3.8164 0.8981 -2.0339 0.9825
3.7230 1.2290 -2.0339 0.9825
3.6011 1.5505 -2.0339 0.9825
3.4514 1.8600 -2.0340 0.9825
3.0737 2.4339 -2.0340 0.9825
2.8487 2.6938 -2.0340 0.9825
2.6017 2.9330 -2.0340 0.9825
1.1098 3.7603 -2.0340 0.9825
0.7761 3.8431 -2.0340 0.9825
1.8527 0.1032 -1.0163 0.9916
1.8576 0.4371 -1.0452 0.9913
3.2691 1.7618 -2.0339 0.9832
2.2114 2.9834 -2.0340 0.9832
1.6568 3.3236 -2.0340 0.9832
1.3592 3.4559 -2.0340 0.9832
1.0512 3.5617 -2.0339 0.9832
0.7351 3.6401 -2.0339 0.9832
0.4134 3.6905 -2.0339 0.9832
1.7239 0.5691 -1.0481 0.9917
2.3377 2.6355 -2.0340 0.9839
2.0979 2.8302 -2.0340 0.9839
1.8418 3.0030 -2.0339 0.9839
1.5716 3.1529 -2.0339 0.9839
0.6973 3.4532 -2.0339 0.9839
