ply
format ascii 1.0
element vertex 184
property float32 x
property float32 y
property float32 z
property float32 I
end_header
2.8459 -6.1122 -0.6473 0.9733
-7.5232 -15.3789 -2.0337 0.9334
-6.1254 -15.9871 -2.0337 0.9334
-3.1955 -16.8198 -2.0337 0.9334
-0.1643 -17.1200 -2.0337 0.9334
1.7107 -6.4930 -0.7976 0.9733
2.3348 -6.4627 -0.8162 0.9727
2.7590 -5.9254 -0.7764 0.9740
8.5791 -14.8172 -2.0338 0.9334
11.0693 -13.0627 -2.0338 0.9334
12.1875 -12.0264 -2.0339 0.9334
13.2091 -10.8947 -2.0339 0.9334
14.1260 -9.6766 -2.0339 0.9334
14.9309 -8.3817 -2.0339 0.9334
-6.3071 -12.8932 -2.0337 0.9437
-5.1353 -13.4032 -2.0337 0.9437
-1.4140 -14.2836 -2.0337 0.9437
2.2025 -6.0964 -0.9184 0.9742
7.1924 -12.4222 -2.0338 0.9437
10.2175 -10.0824 -2.0339 0.9437
12.5175 -7.0268 -2.0339 0.9437
-6.3897 -10.5629 -2.0337 0.9512
-4.4168 -11.5280 -2.0337 0.9512
-1.2161 -12.2853 -2.0338 0.9512
2.0710 -12.1705 -2.0338 0.9512
1.6516 -6.2688 -1.0680 0.9741
6.1861 -10.6841 -2.0338 0.9512
7.1120 -10.0916 -2.0338 0.9512
7.9816 -9.4190 -2.0339 0.9512
10.7660 -6.0437 -2.0339 0.9512
-3.8712 -10.1039 -2.0338 0.9569
-1.0659 -10.7676 -2.0338 0.9569
0.8590 -10.7861 -2.0338 0.9569
1.8151 -10.6670 -2.0338 0.9569
1.5968 -6.0605 -1.1780 0.9748
2.1366 -5.9140 -1.1819 0.9747
2.6709 -5.7364 -1.1894 0.9746
3.5252 -6.0885 -1.3224 0.9718
6.2334 -8.8448 -2.0339 0.9569
6.9955 -8.2554 -2.0339 0.9569
8.3478 -6.8851 -2.0339 0.9569
8.9272 -6.1153 -2.0339 0.9569
-4.9799 -8.2323 -2.0338 0.9614
-4.2279 -8.6427 -2.0338 0.9614
-3.4423 -8.9845 -2.0338 0.9614
-2.6295 -9.2552 -2.0338 0.9614
-1.7958 -9.4524 -2.0338 0.9614
-0.9478 -9.5747 -2.0338 0.9614
0.7639 -9.5912 -2.0338 0.9614
1.6140 -9.4852 -2.0338 0.9614
5.5428 -7.8649 -2.0339 0.9614
6.8489 -6.7583 -2.0339 0.9614
7.4229 -6.1223 -2.0339 0.9614
-3.8026 -7.7733 -2.0338 0.9651
-2.3650 -8.3241 -2.0338 0.9651
-1.6151 -8.5015 -2.0338 0.9651
-0.8525 -8.6115 -2.0338 0.9651
1.4516 -8.5311 -2.0338 0.9651
1.5669 -5.9471 -1.4454 0.9750
2.6996 -5.7979 -1.5031 0.9741
3.3523 -5.7899 -1.5724 0.9729
4.9852 -7.0738 -2.0339 0.9651
6.6762 -5.5064 -2.0339 0.9651
7.1396 -4.8908 -2.0339 0.9651
7.5464 -4.2363 -2.0339 0.9651
-4.0656 -6.7209 -2.0338 0.9681
-3.4517 -7.0560 -2.0338 0.9681
-0.7738 -7.8168 -2.0338 0.9681
-0.0754 -7.8547 -2.0338 0.9681
1.5598 -5.9200 -1.5851 0.9750
2.0684 -5.7251 -1.5761 0.9752
5.0784 -5.9930 -2.0339 0.9681
5.5914 -5.5175 -2.0339 0.9681
6.0601 -4.9983 -2.0339 0.9681
-3.7185 -6.1470 -2.0338 0.9706
-3.1569 -6.4534 -2.0338 0.9706
-1.3409 -7.0580 -2.0338 0.9706
-0.0689 -7.1840 -2.0338 0.9706
1.5892 -6.0317 -1.7658 0.9744
4.6447 -5.4812 -2.0339 0.9706
5.1139 -5.0463 -2.0339 0.9706
5.5426 -4.5714 -2.0339 0.9706
5.9273 -4.0603 -2.0339 0.9706
-3.4225 -5.6577 -2.0338 0.9727
-2.3658 -6.1746 -2.0338 0.9727
-1.2341 -6.4962 -2.0338 0.9727
0.5249 -6.5916 -2.0338 0.9727
1.6847 -6.3943 -2.0338 0.9727
3.8092 -5.4051 -2.0339 0.9727
5.1013 -4.2075 -2.0339 0.9727
5.7662 -3.2370 -2.0339 0.9727
-3.1669 -5.2351 -2.0338 0.9745
-2.6886 -5.4961 -2.0338 0.9745
-2.1891 -5.7135 -2.0338 0.9745
-1.6721 -5.8856 -2.0338 0.9745
0.4857 -6.0993 -2.0338 0.9745
1.0264 -6.0319 -2.0338 0.9745
2.0790 -5.7546 -2.0339 0.9745
3.0659 -5.2951 -2.0339 0.9745
3.5248 -5.0014 -2.0339 0.9745
5.3355 -2.9952 -2.0339 0.9745
-2.9437 -4.8662 -2.0338 0.9761
-2.4992 -5.1088 -2.0338 0.9761
-1.0615 -5.5874 -2.0338 0.9761
0.9540 -5.6068 -2.0338 0.9761
2.4007 -5.1559 -2.0339 0.9761
3.2763 -4.6490 -2.0339 0.9761
4.0484 -3.9948 -2.0339 0.9761
4.3877 -3.6189 -2.0339 0.9761
-1.4504 -5.1052 -2.0338 0.9775
-0.5228 -5.2815 -2.0338 0.9775
0.8903 -5.2321 -2.0338 0.9775
2.2402 -4.8113 -2.0339 0.9775
2.6594 -4.5930 -2.0339 0.9775
3.0574 -4.3383 -2.0339 0.9775
3.7778 -3.7278 -2.0339 0.9775
4.0944 -3.3771 -2.0339 0.9775
4.6281 -2.5981 -2.0339 0.9775
-2.5721 -4.2519 -2.0338 0.9788
-2.1837 -4.4639 -2.0338 0.9788
-1.3581 -4.7802 -2.0338 0.9788
-0.4895 -4.9452 -2.0338 0.9788
-0.0477 -4.9692 -2.0338 0.9788
0.3945 -4.9537 -2.0338 0.9788
1.2661 -4.8054 -2.0339 0.9788
1.6886 -4.6737 -2.0339 0.9788
2.8627 -4.0621 -2.0339 0.9788
3.2127 -3.7913 -2.0339 0.9788
3.5373 -3.4905 -2.0339 0.9788
3.8338 -3.1620 -2.0339 0.9788
4.0999 -2.8085 -2.0339 0.9788
4.3335 -2.4326 -2.0339 0.9788
-2.0507 -4.1920 -2.0338 0.9798
-1.2754 -4.4891 -2.0338 0.9798
-0.4597 -4.6441 -2.0338 0.9798
1.1890 -4.5128 -2.0339 0.9798
1.9698 -4.2307 -2.0339 0.9798
2.6884 -3.8147 -2.0339 0.9798
3.0171 -3.5604 -2.0339 0.9798
3.3218 -3.2779 -2.0339 0.9798
3.6003 -2.9695 -2.0339 0.9798
3.8502 -2.6374 -2.0339 0.9798
-2.2742 -3.7595 -2.0338 0.9808
-0.4329 -4.3725 -2.0338 0.9808
-0.0422 -4.3937 -2.0339 0.9808
1.4930 -4.1325 -2.0339 0.9808
1.8547 -3.9833 -2.0339 0.9808
3.3898 -2.7958 -2.0339 0.9808
-2.1461 -3.5477 -2.0338 0.9817
-0.7739 -4.0735 -2.0338 0.9817
-0.4085 -4.1261 -2.0339 0.9817
-0.0398 -4.1461 -2.0339 0.9817
1.7502 -3.7588 -2.0339 0.9817
2.3886 -3.3892 -2.0339 0.9817
2.6806 -3.1633 -2.0339 0.9817
3.4208 -2.3433 -2.0339 0.9817
3.6157 -2.0297 -2.0339 0.9817
-1.4027 -3.6609 -2.0338 0.9825
-1.0714 -3.7712 -2.0338 0.9825
-0.3862 -3.9014 -2.0339 0.9825
-0.0376 -3.9203 -2.0339 0.9825
1.6548 -3.5541 -2.0339 0.9825
1.9644 -3.3929 -2.0339 0.9825
2.2584 -3.2046 -2.0339 0.9825
2.5346 -2.9911 -2.0339 0.9825
2.7907 -2.7537 -2.0339 0.9825
3.0246 -2.4946 -2.0339 0.9825
3.4187 -1.9191 -2.0339 0.9825
-0.3658 -3.6954 -2.0339 0.9832
1.5674 -3.3664 -2.0339 0.9832
2.1391 -3.0354 -2.0339 0.9832
2.4008 -2.8331 -2.0339 0.9832
2.6433 -2.6083 -2.0339 0.9832
2.8648 -2.3629 -2.0339 0.9832
-1.8234 -3.0142 -2.0339 0.9839
-1.5480 -3.1644 -2.0339 0.9839
-1.2604 -3.2896 -2.0339 0.9839
-0.9628 -3.3887 -2.0339 0.9839
-0.6575 -3.4609 -2.0339 0.9839
-0.3470 -3.5056 -2.0339 0.9839
2.2775 -2.6876 -2.0339 0.9839
2.5076 -2.4744 -2.0339 0.9839
2.7177 -2.2415 -2.0339 0.9839
2.9064 -1.9909 -2.0339 0.9839
