ply
format ascii 1.0
element vertex 182
property float32 x
property float32 y
property float32 z
property float32 I
end_header
16.7009 -4.3399 -0.8751 0.9332
16.4166 -4.2660 -1.2437 0.9342
16.1139 -4.1873 -1.5984 0.9353
2.3005 -16.9657 -2.0337 0.9334
2.6088 -6.0438 -0.7819 0.9738
8.1846 -15.0387 -2.0338 0.9334
11.9331 -12.2788 -2.0339 0.9334
12.9987 -11.1449 -2.0339 0.9334
16.5728 -4.3066 -2.0340 0.9334
16.8955 -2.7843 -2.0340 0.9333
17.1207 0.3165 -2.0341 0.9333
1.5046 -6.5532 -0.9527 0.9732
2.5570 -5.9237 -0.9142 0.9743
9.0283 -11.1596 -2.0339 0.9437
10.0042 -10.2940 -2.0339 0.9437
11.7008 -8.3156 -2.0339 0.9437
12.4075 -7.2191 -2.0339 0.9437
13.0118 -6.0630 -2.0339 0.9437
13.5086 -4.8567 -2.0340 0.9437
14.1643 -2.3342 -2.0340 0.9437
14.3179 -1.0387 -2.0340 0.9437
2.5445 -5.8948 -1.0577 0.9743
3.1946 -5.8700 -1.1010 0.9733
6.8617 -10.2634 -2.0338 0.9512
8.6045 -8.8537 -2.0339 0.9512
10.0637 -7.1521 -2.0339 0.9512
11.1911 -5.2146 -2.0339 0.9512
11.9497 -3.1052 -2.0340 0.9512
12.3144 -0.8934 -2.0340 0.9512
12.3448 0.2282 -2.0340 0.9512
1.4540 -10.7222 -2.0338 0.9569
2.4830 -5.7522 -1.1776 0.9748
3.1822 -5.8472 -1.2513 0.9733
6.8058 -8.4124 -2.0339 0.9569
7.5414 -7.7599 -2.0339 0.9569
8.2148 -7.0433 -2.0339 0.9569
8.8204 -6.2685 -2.0339 0.9569
9.8085 -4.5704 -2.0339 0.9569
10.1830 -3.6611 -2.0339 0.9569
10.6772 -1.7596 -2.0340 0.9569
10.7930 -0.7830 -2.0340 0.9569
1.2929 -9.5343 -2.0338 0.9614
1.9369 -5.9121 -1.3151 0.9749
3.1290 -5.7495 -1.3836 0.9736
5.3477 -7.9989 -2.0339 0.9614
6.7059 -6.9002 -2.0339 0.9614
7.3047 -6.2629 -2.0339 0.9614
8.7218 -4.0640 -2.0339 0.9614
9.0548 -3.2555 -2.0339 0.9614
9.4943 -1.5646 -2.0340 0.9614
9.5972 -0.6963 -2.0340 0.9614
1.1628 -8.5752 -2.0338 0.9651
1.8991 -5.7968 -1.4336 0.9752
2.5022 -5.7967 -1.4839 0.9744
3.0153 -5.5405 -1.4825 0.9744
4.8097 -7.1942 -2.0339 0.9651
6.0313 -6.2060 -2.0339 0.9651
7.0541 -5.0132 -2.0339 0.9651
7.4801 -4.3522 -2.0339 0.9651
7.8444 -3.6552 -2.0339 0.9651
8.1438 -2.9280 -2.0339 0.9651
8.3761 -2.1766 -2.0339 0.9651
8.5391 -1.4072 -2.0340 0.9651
8.6317 -0.6262 -2.0340 0.9651
8.6529 0.1600 -2.0340 0.9651
1.0555 -7.7839 -2.0338 0.9681
1.3901 -6.0547 -1.6085 0.9747
1.9101 -5.8305 -1.5886 0.9750
2.5423 -5.8898 -1.6610 0.9738
4.9407 -6.1070 -2.0339 0.9681
5.9635 -5.1130 -2.0339 0.9681
6.4031 -4.5506 -2.0339 0.9681
7.1204 -3.3178 -2.0339 0.9681
7.6030 -1.9757 -2.0339 0.9681
7.8350 -0.5684 -2.0340 0.9681
1.4295 -6.2260 -1.8084 0.9738
1.8948 -5.7837 -1.7229 0.9750
2.8473 -6.5961 -2.0339 0.9706
3.4343 -6.3104 -2.0339 0.9706
5.8563 -4.1620 -2.0339 0.9706
6.7610 -2.4308 -2.0339 0.9706
7.1659 -0.5199 -2.0340 0.9706
0.8885 -6.5525 -2.0338 0.9727
1.4797 -6.4448 -2.0338 0.9727
3.6752 -5.4971 -2.0339 0.9727
4.6086 -4.7421 -2.0339 0.9727
5.7156 -3.3255 -2.0339 0.9727
5.9940 -2.7929 -2.0339 0.9727
6.2228 -2.2373 -2.0339 0.9727
6.4002 -1.6631 -2.0339 0.9727
6.5248 -1.0753 -2.0339 0.9727
6.5955 -0.4785 -2.0340 0.9727
6.6117 0.1222 -2.0340 0.9727
0.8221 -6.0631 -2.0338 0.9745
1.3692 -5.9634 -2.0338 0.9745
2.4249 -5.6176 -2.0339 0.9745
4.6451 -3.9827 -2.0339 0.9745
4.9875 -3.5446 -2.0339 0.9745
5.2887 -3.0772 -2.0339 0.9745
5.7580 -2.0702 -2.0339 0.9745
5.9222 -1.5389 -2.0339 0.9745
6.1029 -0.4428 -2.0339 0.9745
6.1179 0.1131 -2.0340 0.9745
0.7642 -5.6358 -2.0338 0.9761
1.2727 -5.5432 -2.0338 0.9761
1.7706 -5.4048 -2.0339 0.9761
2.7187 -4.9956 -2.0339 0.9761
3.1610 -4.7281 -2.0339 0.9761
3.5772 -4.4216 -2.0339 0.9761
3.9638 -4.0787 -2.0339 0.9761
4.6360 -3.2948 -2.0339 0.9761
4.9160 -2.8603 -2.0339 0.9761
5.1554 -2.4022 -2.0339 0.9761
5.5048 -1.4305 -2.0339 0.9761
5.6120 -0.9249 -2.0339 0.9761
5.6867 0.1051 -2.0340 0.9761
0.7132 -5.2592 -2.0338 0.9775
1.6523 -5.0436 -2.0339 0.9775
2.1034 -4.8727 -2.0339 0.9775
4.3262 -3.0746 -2.0339 0.9775
4.8109 -2.2417 -2.0339 0.9775
5.3067 0.0981 -2.0339 0.9775
0.6677 -4.9244 -2.0339 0.9788
1.5471 -4.7225 -2.0339 0.9788
2.3755 -4.3649 -2.0339 0.9788
2.7620 -4.1312 -2.0339 0.9788
3.7727 -3.2346 -2.0339 0.9788
4.2954 -2.4992 -2.0339 0.9788
4.9688 0.0918 -2.0339 0.9788
0.6271 -4.6245 -2.0339 0.9798
2.5937 -3.8797 -2.0339 0.9798
2.9353 -3.6282 -2.0339 0.9798
3.2525 -3.3468 -2.0339 0.9798
3.8041 -2.7035 -2.0339 0.9798
4.5169 -1.1738 -2.0339 0.9798
4.6049 -0.7589 -2.0339 0.9798
4.6547 -0.3377 -2.0339 0.9798
2.1004 -3.8594 -2.0339 0.9808
2.7636 -3.4160 -2.0339 0.9808
3.7979 -2.2097 -2.0339 0.9808
4.2528 -1.1051 -2.0339 0.9808
4.3356 -0.7145 -2.0339 0.9808
4.3825 -0.3180 -2.0339 0.9808
1.6432 -3.8068 -2.0339 0.9817
1.9820 -3.6419 -2.0339 0.9817
2.3045 -3.4470 -2.0339 0.9817
2.8898 -2.9735 -2.0339 0.9817
4.0132 -1.0429 -2.0339 0.9817
4.0912 -0.6743 -2.0339 0.9817
4.1458 0.0766 -2.0339 0.9817
0.5268 -3.8849 -2.0339 0.9825
0.8773 -3.8211 -2.0339 0.9825
1.5537 -3.5995 -2.0339 0.9825
1.8741 -3.4436 -2.0339 0.9825
2.1790 -3.2592 -2.0339 0.9825
2.7324 -2.8115 -2.0339 0.9825
2.9764 -2.5519 -2.0339 0.9825
3.1958 -2.2712 -2.0339 0.9825
3.3888 -1.9717 -2.0339 0.9825
3.6894 -1.3264 -2.0339 0.9825
2.1012 -0.3463 -1.1047 0.9904
2.0776 -0.1507 -1.0806 0.9907
0.8310 -3.6193 -2.0339 0.9832
1.1561 -3.5289 -2.0339 0.9832
1.7751 -3.2617 -2.0339 0.9832
2.0639 -3.0871 -2.0339 0.9832
2.3357 -2.8870 -2.0339 0.9832
3.0270 -2.1512 -2.0339 0.9832
3.3661 -1.5684 -2.0339 0.9832
3.4946 -1.2564 -2.0339 0.9832
1.8519 -0.1344 -1.0170 0.9916
0.4734 -3.4908 -2.0339 0.9839
0.7883 -3.4335 -2.0339 0.9839
1.0968 -3.3477 -2.0339 0.9839
1.3961 -3.2343 -2.0339 0.9839
2.8716 -2.0408 -2.0339 0.9839
3.0450 -1.7716 -2.0339 0.9839
1.7231 -0.6195 -1.0572 0.9916
1.7133 -0.4452 -1.0220 0.9919
1.7142 -0.2825 -1.0030 0.9920
1.7227 -0.1250 -0.9972 0.9921
1.7246 0.0319 -0.9959 0.9921
