ply
format ascii 1.0
element vertex 202
property float32 x
property float32 y
property float32 z
property float32 I
end_header
-11.6748 -8.5507 -0.7339 0.9437
-11.6725 -8.5490 -1.0608 0.9436
2.7844 -6.1149 -0.6451 0.9734
-11.2663 -8.2515 -1.6588 0.9453
-12.8349 -11.3302 -2.0337 0.9334
-10.5705 -13.4675 -2.0337 0.9334
-9.3020 -14.3729 -2.0337 0.9334
-7.9564 -15.1593 -2.0337 0.9334
-6.5450 -15.8200 -2.0337 0.9334
-3.5714 -16.7439 -2.0337 0.9334
-2.0340 -16.9994 -2.0337 0.9334
1.0786 -17.0869 -2.0337 0.9334
2.6280 -16.9181 -2.0337 0.9334
4.1557 -16.6092 -2.0338 0.9334
2.2841 -6.5353 -0.8223 0.9725
9.8004 -14.0395 -2.0338 0.9334
-11.4740 -8.4036 -2.0151 0.9442
-10.7604 -9.4989 -2.0337 0.9437
-7.7985 -12.0498 -2.0337 0.9437
-5.4870 -13.2631 -2.0337 0.9437
-2.9941 -14.0376 -2.0337 0.9437
-1.7052 -14.2518 -2.0337 0.9437
0.9043 -14.3251 -2.0337 0.9437
2.2033 -14.1836 -2.0338 0.9437
7.1118 -12.4685 -2.0338 0.9437
-9.9596 -7.2945 -2.0337 0.9512
-7.6221 -9.7111 -2.0337 0.9512
-6.7075 -10.3640 -2.0337 0.9512
-4.7194 -11.4075 -2.0337 0.9512
-3.6625 -11.7895 -2.0337 0.9512
-1.4666 -12.2579 -2.0338 0.9512
0.7778 -12.3209 -2.0338 0.9512
1.8950 -12.1991 -2.0338 0.9512
1.5827 -6.3256 -1.0742 0.9739
2.1077 -6.0305 -1.0524 0.9744
2.6714 -5.8666 -1.0619 0.9742
6.1168 -10.7240 -2.0338 0.9512
-8.1116 -7.1607 -2.0338 0.9569
-6.6805 -8.5114 -2.0337 0.9569
-5.8789 -9.0837 -2.0337 0.9569
-5.0284 -9.5807 -2.0338 0.9569
0.6817 -10.7988 -2.0338 0.9569
1.6609 -10.6921 -2.0338 0.9569
1.5482 -6.1877 -1.1989 0.9744
2.0863 -5.9693 -1.1886 0.9746
3.4917 -6.1218 -1.3247 0.9717
6.1937 -8.8727 -2.0339 0.9569
-7.7622 -5.6851 -2.0338 0.9614
-5.2276 -8.0773 -2.0338 0.9614
-4.4714 -8.5193 -2.0338 0.9614
-3.6781 -8.8906 -2.0338 0.9614
-2.8544 -9.1882 -2.0338 0.9614
-1.1430 -9.5534 -2.0338 0.9614
1.5583 -6.2283 -1.3571 0.9741
3.2718 -5.7361 -1.3959 0.9734
-6.9814 -5.1132 -2.0338 0.9651
-6.4874 -5.7269 -2.0338 0.9651
-4.7017 -7.2648 -2.0338 0.9651
-4.0216 -7.6623 -2.0338 0.9651
-2.5673 -8.2640 -2.0338 0.9651
-1.8052 -8.4632 -2.0338 0.9651
0.5452 -8.6365 -2.0338 0.9651
1.3284 -8.5511 -2.0338 0.9651
1.5159 -6.0586 -1.4678 0.9747
2.0009 -5.7251 -1.4253 0.9754
4.9534 -7.0960 -2.0339 0.9651
-5.3916 -5.7123 -2.0338 0.9681
-4.8498 -6.1790 -2.0338 0.9681
-3.0028 -7.2583 -2.0338 0.9681
-2.3304 -7.5013 -2.0338 0.9681
0.4949 -7.8395 -2.0338 0.9681
2.6555 -5.8319 -1.6591 0.9739
-5.7960 -4.2450 -2.0338 0.9706
-5.3859 -4.7545 -2.0338 0.9706
-3.9034 -6.0313 -2.0338 0.9706
-3.3387 -6.3613 -2.0338 0.9706
-2.7464 -6.6385 -2.0338 0.9706
-2.1314 -6.8608 -2.0338 0.9706
-1.4987 -7.0262 -2.0338 0.9706
-0.8535 -7.1334 -2.0338 0.9706
-0.2013 -7.1815 -2.0338 0.9706
0.4526 -7.1700 -2.0338 0.9706
1.1028 -7.0992 -2.0338 0.9706
1.5082 -6.0278 -1.7590 0.9745
2.0950 -5.9942 -1.7976 0.9739
2.9773 -6.5385 -2.0339 0.9706
4.1123 -5.8912 -2.0339 0.9706
-5.3346 -3.9071 -2.0338 0.9727
-4.9571 -4.3760 -2.0338 0.9727
-4.5387 -4.8087 -2.0338 0.9727
-4.0826 -5.2015 -2.0338 0.9727
-3.0730 -5.8549 -2.0338 0.9727
-2.5278 -6.1101 -2.0338 0.9727
-1.9617 -6.3146 -2.0338 0.9727
-1.3793 -6.4669 -2.0338 0.9727
-0.7855 -6.5655 -2.0338 0.9727
-0.1852 -6.6098 -2.0338 0.9727
1.0150 -6.5341 -2.0338 0.9727
1.6050 -6.4147 -2.0338 0.9727
2.0856 -5.9675 -1.9443 0.9739
2.7403 -6.0179 -2.0339 0.9727
3.2762 -5.7438 -2.0339 0.9727
-4.9362 -3.6153 -2.0338 0.9745
-4.5870 -4.0492 -2.0338 0.9745
-1.2763 -5.9839 -2.0338 0.9745
-0.7269 -6.0752 -2.0338 0.9745
-0.1714 -6.1161 -2.0338 0.9745
0.3855 -6.1064 -2.0338 0.9745
0.9392 -6.0461 -2.0338 0.9745
1.4851 -5.9356 -2.0338 0.9745
2.5356 -5.5685 -2.0339 0.9745
3.0315 -5.3149 -2.0339 0.9745
3.5023 -5.0172 -2.0339 0.9745
-4.5883 -3.3605 -2.0338 0.9761
-3.5114 -4.4738 -2.0338 0.9761
-2.6431 -5.0358 -2.0338 0.9761
-2.1742 -5.2554 -2.0338 0.9761
-1.6873 -5.4313 -2.0338 0.9761
-1.1864 -5.5622 -2.0338 0.9761
-0.6757 -5.6471 -2.0338 0.9761
-0.1593 -5.6851 -2.0338 0.9761
0.3583 -5.6761 -2.0338 0.9761
0.8730 -5.6200 -2.0338 0.9761
1.3804 -5.5173 -2.0339 0.9761
1.8764 -5.3690 -2.0339 0.9761
2.3570 -5.1761 -2.0339 0.9761
2.8179 -4.9403 -2.0339 0.9761
3.2555 -4.6636 -2.0339 0.9761
-4.2817 -3.1360 -2.0338 0.9775
-3.9787 -3.5123 -2.0338 0.9775
-3.2768 -4.1748 -2.0338 0.9775
-2.0289 -4.9041 -2.0338 0.9775
-1.5745 -5.0683 -2.0338 0.9775
0.3343 -5.2968 -2.0338 0.9775
0.8146 -5.2444 -2.0338 0.9775
1.7511 -5.0102 -2.0339 0.9775
3.0379 -4.3520 -2.0339 0.9775
-4.0091 -2.9363 -2.0338 0.9788
-3.7255 -3.2887 -2.0338 0.9788
-3.4109 -3.6138 -2.0338 0.9788
-2.3095 -4.4002 -2.0338 0.9788
-1.8997 -4.5919 -2.0338 0.9788
-1.0366 -4.8601 -2.0338 0.9788
-0.5904 -4.9342 -2.0338 0.9788
2.0594 -4.5227 -2.0339 0.9788
2.4621 -4.3166 -2.0339 0.9788
2.8445 -4.0748 -2.0339 0.9788
-3.4986 -3.0884 -2.0338 0.9798
-2.5356 -3.9178 -2.0338 0.9798
-2.1688 -4.1321 -2.0338 0.9798
-0.5544 -4.6337 -2.0338 0.9798
0.2940 -4.6575 -2.0339 0.9798
0.7163 -4.6115 -2.0339 0.9798
1.9340 -4.2472 -2.0339 0.9798
2.3122 -4.0538 -2.0339 0.9798
-3.2939 -2.9078 -2.0338 0.9808
-3.0159 -3.1953 -2.0338 0.9808
-2.0420 -3.8905 -2.0338 0.9808
-0.5220 -4.3628 -2.0338 0.9808
0.2768 -4.3852 -2.0339 0.9808
0.6745 -4.3418 -2.0339 0.9808
1.0665 -4.2625 -2.0339 0.9808
2.1770 -3.8167 -2.0339 0.9808
2.5151 -3.6029 -2.0339 0.9808
-3.3450 -2.4499 -2.0338 0.9817
-3.1084 -2.7440 -2.0338 0.9817
-2.8460 -3.0153 -2.0338 0.9817
-2.5600 -3.2616 -2.0338 0.9817
-2.2528 -3.4809 -2.0338 0.9817
-1.9269 -3.6713 -2.0338 0.9817
-1.5851 -3.8313 -2.0338 0.9817
-0.8649 -4.0551 -2.0338 0.9817
-0.1162 -4.1447 -2.0339 0.9817
0.2612 -4.1381 -2.0339 0.9817
1.3680 -3.9141 -2.0339 0.9817
1.7183 -3.7735 -2.0339 0.9817
2.0543 -3.6017 -2.0339 0.9817
2.3734 -3.3999 -2.0339 0.9817
-2.9391 -2.5946 -2.0338 0.9825
-1.4987 -3.6227 -2.0338 0.9825
-0.1098 -3.9189 -2.0339 0.9825
0.2470 -3.9127 -2.0339 0.9825
1.2935 -3.7010 -2.0339 0.9825
1.6247 -3.5680 -2.0339 0.9825
1.9424 -3.4055 -2.0339 0.9825
-2.9958 -2.1942 -2.0339 0.9832
-2.2927 -2.9211 -2.0338 0.9832
-1.7258 -3.2881 -2.0338 0.9832
-0.4412 -3.6871 -2.0339 0.9832
-0.1041 -3.7120 -2.0339 0.9832
0.2339 -3.7061 -2.0339 0.9832
0.5700 -3.6695 -2.0339 0.9832
1.8398 -3.2257 -2.0339 0.9832
-2.6409 -2.3313 -2.0339 0.9839
-2.4180 -2.5618 -2.0339 0.9839
-2.1750 -2.7711 -2.0339 0.9839
-1.9140 -2.9574 -2.0339 0.9839
-1.3467 -3.2552 -2.0339 0.9839
-0.4185 -3.4978 -2.0339 0.9839
-0.0987 -3.5214 -2.0339 0.9839
1.4599 -3.2061 -2.0339 0.9839
1.7454 -3.0600 -2.0339 0.9839
