ply
format ascii 1.0
element vertex 205
property float32 x
property float32 y
property float32 z
property float32 I
end_header
-11.2559 -8.1219 -1.3326 0.9458
-17.0430 1.6359 -2.0338 0.9334
-17.1209 0.0959 -2.0338 0.9334
-16.5246 -4.4788 -2.0337 0.9334
-11.8633 -12.3438 -2.0337 0.9334
-10.7046 -13.3611 -2.0337 0.9334
-8.1368 -15.0632 -2.0337 0.9334
-6.7486 -15.7342 -2.0337 0.9334
-5.3056 -16.2777 -2.0337 0.9334
-3.8196 -16.6891 -2.0337 0.9334
-0.7668 -17.1036 -2.0337 0.9334
-14.3025 -1.2113 -2.0338 0.9437
-14.1354 -2.4932 -2.0338 0.9437
-13.8537 -3.7549 -2.0337 0.9437
-12.9563 -6.1768 -2.0337 0.9437
-12.3480 -7.3174 -2.0337 0.9437
-11.5596 -8.3411 -2.0197 0.9440
-6.8217 -12.6286 -2.0337 0.9437
-4.4480 -13.6467 -2.0337 0.9437
-0.6429 -14.3391 -2.0337 0.9437
-12.2891 1.1796 -2.0338 0.9512
-12.3453 0.0692 -2.0338 0.9512
-12.3014 -1.0419 -2.0338 0.9512
-12.1577 -2.1444 -2.0338 0.9512
-11.5765 -4.2885 -2.0338 0.9512
-11.1437 -5.3126 -2.0337 0.9512
-10.6205 -6.2937 -2.0337 0.9512
-10.0111 -7.2237 -2.0337 0.9512
-9.3205 -8.0951 -2.0337 0.9512
-8.5544 -8.9009 -2.0337 0.9512
-7.7188 -9.6344 -2.0337 0.9512
-6.8208 -10.2898 -2.0337 0.9512
-1.6603 -12.2331 -2.0337 0.9512
-0.5529 -12.3330 -2.0338 0.9512
-10.7709 1.0339 -2.0338 0.9569
-10.8202 0.0606 -2.0338 0.9569
-10.4434 -2.8306 -2.0338 0.9569
-9.7670 -4.6563 -2.0338 0.9569
-8.7744 -6.3313 -2.0338 0.9569
-8.1691 -7.0950 -2.0338 0.9569
-7.4976 -7.8013 -2.0337 0.9569
-6.7653 -8.4442 -2.0337 0.9569
-5.9782 -9.0187 -2.0337 0.9569
-1.4552 -10.7219 -2.0338 0.9569
-9.5776 0.9193 -2.0338 0.9614
-9.6214 0.0539 -2.0338 0.9614
-9.5872 -0.8120 -2.0338 0.9614
-9.4753 -1.6712 -2.0338 0.9614
-9.2864 -2.5170 -2.0338 0.9614
-9.0223 -3.3423 -2.0338 0.9614
-6.6670 -6.9370 -2.0338 0.9614
-5.3159 -8.0195 -2.0338 0.9614
-3.7926 -8.8424 -2.0338 0.9614
-2.1466 -9.3789 -2.0338 0.9614
-1.2940 -9.5341 -2.0338 0.9614
-0.4309 -9.6118 -2.0338 0.9614
-8.6141 0.8269 -2.0338 0.9651
-8.6229 -0.7303 -2.0338 0.9651
-7.8113 -3.7240 -2.0338 0.9651
-7.4446 -4.4117 -2.0338 0.9651
-5.4107 -6.7534 -2.0338 0.9651
-4.7811 -7.2128 -2.0338 0.9651
-4.1128 -7.6137 -2.0338 0.9651
-0.3876 -8.6450 -2.0338 0.9651
-7.8550 0.0440 -2.0338 0.9681
-7.8271 -0.6629 -2.0338 0.9681
-7.7356 -1.3645 -2.0338 0.9681
-7.5815 -2.0549 -2.0338 0.9681
-7.3658 -2.7287 -2.0338 0.9681
-7.0905 -3.3803 -2.0338 0.9681
-6.7576 -4.0046 -2.0338 0.9681
-6.3699 -4.5963 -2.0338 0.9681
-5.4430 -5.6634 -2.0338 0.9681
-4.3399 -6.5472 -2.0338 0.9681
-2.4342 -7.4683 -2.0338 0.9681
-7.1587 -0.6063 -2.0338 0.9706
-7.0751 -1.2479 -2.0338 0.9706
-6.4850 -3.0917 -2.0338 0.9706
-5.8259 -4.2038 -2.0338 0.9706
-5.4241 -4.7109 -2.0338 0.9706
-4.9782 -5.1798 -2.0338 0.9706
-4.4920 -5.6067 -2.0338 0.9706
-2.2264 -6.8306 -2.0338 0.9706
-1.6028 -7.0032 -2.0338 0.9706
-0.9662 -7.1190 -2.0338 0.9706
-0.3218 -7.1771 -2.0338 0.9706
-6.5822 0.6318 -2.0339 0.9727
-6.6123 0.0370 -2.0338 0.9727
-6.5118 -1.1486 -2.0338 0.9727
-6.3821 -1.7298 -2.0338 0.9727
-5.9688 -2.8456 -2.0338 0.9727
-5.6885 -3.3710 -2.0338 0.9727
-5.3621 -3.8692 -2.0338 0.9727
-4.9923 -4.3359 -2.0338 0.9727
-4.5819 -4.7675 -2.0338 0.9727
-2.6065 -6.0770 -2.0338 0.9727
-0.2962 -6.6057 -2.0338 0.9727
-6.0905 0.5846 -2.0339 0.9745
-6.0967 -0.5163 -2.0338 0.9745
-5.9054 -1.6006 -2.0338 0.9745
-5.2637 -3.1193 -2.0338 0.9745
-4.9617 -3.5802 -2.0338 0.9745
-4.2398 -4.4114 -2.0338 0.9745
-3.8256 -4.7750 -2.0338 0.9745
-3.3805 -5.0998 -2.0338 0.9745
-2.4118 -5.6231 -2.0338 0.9745
-1.8961 -5.8173 -2.0338 0.9745
-1.3650 -5.9643 -2.0338 0.9745
-5.6009 -0.9879 -2.0338 0.9761
-5.4893 -1.4878 -2.0338 0.9761
-5.3332 -1.9757 -2.0338 0.9761
-5.1338 -2.4475 -2.0338 0.9761
-4.8927 -2.8995 -2.0338 0.9761
-4.6120 -3.3279 -2.0338 0.9761
-4.2939 -3.7293 -2.0338 0.9761
-3.5560 -4.4385 -2.0338 0.9761
-3.1423 -4.7404 -2.0338 0.9761
-0.7649 -5.6357 -2.0338 0.9761
-5.3072 0.0297 -2.0339 0.9775
-5.2883 -0.4479 -2.0338 0.9775
-5.1224 -1.3884 -2.0338 0.9775
-4.5657 -2.7057 -2.0338 0.9775
-4.3038 -3.1055 -2.0338 0.9775
-4.0070 -3.4801 -2.0338 0.9775
-3.3184 -4.1419 -2.0338 0.9775
-2.9323 -4.4236 -2.0338 0.9775
-2.5224 -4.6695 -2.0338 0.9775
-0.2377 -5.3020 -2.0338 0.9775
-2.1189 -0.3738 -0.8806 0.9907
-4.6599 -1.7263 -2.0338 0.9788
-4.4857 -2.1386 -2.0338 0.9788
-4.2750 -2.5334 -2.0338 0.9788
-3.7519 -3.2586 -2.0338 0.9788
-2.3618 -4.3722 -2.0338 0.9788
-1.9588 -4.5670 -2.0338 0.9788
-1.5400 -4.7247 -2.0338 0.9788
-0.6683 -4.9243 -2.0338 0.9788
-0.2226 -4.9644 -2.0338 0.9788
-1.9732 -0.5349 -0.8910 0.9911
-4.3761 -1.6212 -2.0338 0.9798
-4.2125 -2.0083 -2.0338 0.9798
-4.0147 -2.3792 -2.0338 0.9798
-3.7843 -2.7307 -2.0338 0.9798
-3.2337 -3.3647 -2.0338 0.9798
-2.9179 -3.6420 -2.0338 0.9798
-2.5784 -3.8898 -2.0338 0.9798
-1.4462 -4.4370 -2.0338 0.9798
-0.2090 -4.6621 -2.0338 0.9798
-1.5690 0.0088 -0.7263 0.9931
-1.6089 -0.2838 -0.7562 0.9928
-1.5608 -0.4231 -0.7485 0.9929
-3.9662 -1.8908 -2.0338 0.9808
-3.7799 -2.2400 -2.0338 0.9808
-3.5631 -2.5710 -2.0338 0.9808
-3.3173 -2.8812 -2.0338 0.9808
-3.0446 -3.1679 -2.0338 0.9808
-2.0883 -3.8659 -2.0338 0.9808
-1.7320 -4.0381 -2.0338 0.9808
-1.3616 -4.1776 -2.0338 0.9808
-0.9803 -4.2831 -2.0338 0.9808
-0.5909 -4.3539 -2.0338 0.9808
-0.1968 -4.3895 -2.0338 0.9808
-1.3368 0.0075 -0.6557 0.9941
-1.3414 -0.2366 -0.6681 0.9939
-1.3083 -0.3546 -0.6649 0.9940
-1.2608 -0.4671 -0.6595 0.9940
-3.7427 -1.7843 -2.0338 0.9817
-3.5670 -2.1138 -2.0338 0.9817
-3.1304 -2.7188 -2.0338 0.9817
-2.5925 -3.2358 -2.0338 0.9817
-1.6344 -3.8106 -2.0338 0.9817
-1.2849 -3.9422 -2.0338 0.9817
-0.9250 -4.0418 -2.0338 0.9817
-0.5577 -4.1086 -2.0338 0.9817
-1.1876 -0.2095 -0.6256 0.9946
-1.1596 -0.3143 -0.6233 0.9946
-1.1298 -0.4186 -0.6250 0.9946
-3.3727 -1.9987 -2.0338 0.9825
-3.1792 -2.2940 -2.0338 0.9825
-2.9599 -2.5708 -2.0338 0.9825
-2.7166 -2.8266 -2.0338 0.9825
-1.2150 -3.7275 -2.0338 0.9825
-0.8746 -3.8217 -2.0339 0.9825
-1.0796 0.1036 -0.5940 0.9951
-1.0804 -0.0915 -0.5939 0.9951
-1.0394 -0.2818 -0.5898 0.9951
-1.0212 -0.3783 -0.5965 0.9950
-0.9897 -0.4719 -0.6005 0.9950
-3.1946 -1.8931 -2.0339 0.9832
-2.8036 -2.4350 -2.0338 0.9832
-1.7649 -3.2672 -2.0338 0.9832
-0.8285 -3.6199 -2.0339 0.9832
-0.1663 -3.7097 -2.0339 0.9832
-0.9892 0.0055 -0.5711 0.9954
-0.9889 -0.0838 -0.5730 0.9954
-0.9445 -0.3499 -0.5815 0.9954
-0.9186 -0.4380 -0.5875 0.9953
-2.4410 -2.5399 -2.0339 0.9839
-2.2026 -2.7492 -2.0339 0.9839
-1.9463 -2.9362 -2.0339 0.9839
-1.6743 -3.0995 -2.0339 0.9839
-1.0917 -3.3493 -2.0339 0.9839
-0.7859 -3.4340 -2.0339 0.9839
-0.4737 -3.4907 -2.0339 0.9839
-0.1578 -3.5192 -2.0339 0.9839
