ply
format ascii 1.0
element vertex 198
property float32 x
property float32 y
property float32 z
property float32 I
end_header
2.7890 -6.1151 -0.6453 0.9734
-11.3182 -12.8455 -2.0337 0.9334
-10.1389 -13.7953 -2.0337 0.9334
-8.8803 -14.6372 -2.0337 0.9334
-7.5522 -15.3646 -2.0337 0.9334
-6.1651 -15.9719 -2.0337 0.9334
-4.7297 -16.4543 -2.0337 0.9334
-1.7595 -17.0300 -2.0337 0.9334
2.7696 -16.8955 -2.0337 0.9334
2.2861 -6.4746 -0.8156 0.9727
8.4536 -14.8892 -2.0338 0.9334
9.7362 -14.0842 -2.0338 0.9334
-10.4033 -9.8888 -2.0337 0.9437
-9.4888 -10.7693 -2.0337 0.9437
-8.5002 -11.5656 -2.0337 0.9437
-7.4450 -12.2714 -2.0337 0.9437
-3.9652 -13.7948 -2.0337 0.9437
-2.7308 -14.0912 -2.0337 0.9437
-0.2077 -14.3520 -2.0337 0.9437
1.0612 -14.3143 -2.0337 0.9437
2.3220 -14.1646 -2.0338 0.9437
2.6784 -5.8727 -0.9146 0.9743
7.0871 -12.4825 -2.0338 0.9437
8.1624 -11.8076 -2.0338 0.9437
9.1739 -11.0403 -2.0339 0.9437
-8.9478 -8.5052 -2.0337 0.9512
-8.1613 -9.2626 -2.0337 0.9512
-6.4034 -10.5546 -2.0337 0.9512
-4.4455 -11.5170 -2.0337 0.9512
1.9970 -12.1829 -2.0338 0.9512
1.6447 -6.4156 -1.0911 0.9735
2.1204 -6.0051 -1.0491 0.9745
2.6732 -5.8613 -1.0613 0.9742
7.0204 -10.1555 -2.0338 0.9512
7.8904 -9.4956 -2.0339 0.9512
-6.4078 -8.7187 -2.0337 0.9569
-3.8963 -10.0943 -2.0338 0.9569
-2.9891 -10.3991 -2.0338 0.9569
-2.0586 -10.6225 -2.0338 0.9569
-0.1566 -10.8191 -2.0338 0.9569
1.5862 -6.1875 -1.2006 0.9743
2.1054 -5.9628 -1.1886 0.9746
2.6111 -5.7250 -1.1827 0.9747
6.1531 -8.9009 -2.0339 0.9569
-6.9736 -6.6287 -2.0338 0.9614
-4.9906 -8.2259 -2.0338 0.9614
-4.2442 -8.6347 -2.0338 0.9614
-1.8305 -9.4457 -2.0338 0.9614
-0.1393 -9.6205 -2.0338 0.9614
0.7114 -9.5952 -2.0338 0.9614
1.5564 -9.4949 -2.0338 0.9614
3.2587 -5.7396 -1.3951 0.9734
5.4714 -7.9148 -2.0339 0.9614
-6.2722 -5.9619 -2.0338 0.9651
-4.4886 -7.3984 -2.0338 0.9651
-3.8173 -7.7661 -2.0338 0.9651
-3.1162 -8.0730 -2.0338 0.9651
-1.6464 -8.4955 -2.0338 0.9651
0.6398 -8.6300 -2.0338 0.9651
1.3998 -8.5397 -2.0338 0.9651
2.0155 -5.7082 -1.4227 0.9754
3.2741 -5.7666 -1.5585 0.9731
-5.1929 -5.8936 -2.0338 0.9681
-4.0743 -6.7157 -2.0338 0.9681
-2.8286 -7.3280 -2.0338 0.9681
-2.1700 -7.5493 -2.0338 0.9681
-1.4945 -7.7116 -2.0338 0.9681
0.5807 -7.8336 -2.0338 0.9681
1.2707 -7.7516 -2.0338 0.9681
1.5450 -6.0269 -1.6109 0.9746
2.0455 -5.7932 -1.5907 0.9749
2.6607 -5.8338 -1.6602 0.9739
3.3402 -5.8832 -1.7516 0.9724
5.0203 -6.0417 -2.0339 0.9681
-5.2072 -4.9496 -2.0338 0.9706
-4.7495 -5.3904 -2.0338 0.9706
-1.9847 -6.9046 -2.0338 0.9706
-1.3669 -7.0530 -2.0338 0.9706
-0.7383 -7.1462 -2.0338 0.9706
1.1622 -7.0897 -2.0338 0.9706
1.5458 -6.0297 -1.7622 0.9745
2.0995 -5.9462 -1.7852 0.9741
3.5472 -6.2477 -2.0339 0.9706
4.0854 -5.9099 -2.0339 0.9706
-3.4298 -5.6533 -2.0338 0.9727
-2.3811 -6.1687 -2.0338 0.9727
-1.8267 -6.3550 -2.0338 0.9727
-1.2581 -6.4916 -2.0338 0.9727
0.4889 -6.5943 -2.0338 0.9727
1.0696 -6.5253 -2.0338 0.9727
2.1117 -5.9805 -1.9508 0.9738
2.7439 -6.0163 -2.0339 0.9727
3.2648 -5.7503 -2.0339 0.9727
4.2261 -5.0859 -2.0339 0.9727
-4.0449 -4.5907 -2.0338 0.9745
-3.6234 -4.9302 -2.0338 0.9745
-3.1737 -5.2310 -2.0338 0.9745
-2.6990 -5.4910 -2.0338 0.9745
-1.6903 -5.8804 -2.0338 0.9745
0.9898 -6.0380 -2.0338 0.9745
2.0371 -5.7695 -2.0339 0.9745
2.5390 -5.5669 -2.0339 0.9745
3.9105 -4.7060 -2.0339 0.9745
-4.1222 -3.9183 -2.0338 0.9761
-3.3681 -4.5827 -2.0338 0.9761
-2.9500 -4.8624 -2.0338 0.9761
-2.5088 -5.1040 -2.0338 0.9761
-1.5712 -5.4660 -2.0338 0.9761
-1.0820 -5.5835 -2.0338 0.9761
0.4205 -5.6718 -2.0338 0.9761
1.4123 -5.5092 -2.0339 0.9761
2.8080 -4.9459 -2.0339 0.9761
3.2341 -4.6784 -2.0339 0.9761
3.6349 -4.3744 -2.0339 0.9761
-3.8467 -3.6564 -2.0338 0.9775
-3.5086 -3.9820 -2.0338 0.9775
-3.1430 -4.2765 -2.0338 0.9775
-2.7529 -4.5374 -2.0338 0.9775
-1.9111 -4.9512 -2.0338 0.9775
-1.4662 -5.1007 -2.0338 0.9775
-0.5454 -5.2792 -2.0338 0.9775
-0.0768 -5.3067 -2.0338 0.9775
0.8585 -5.2374 -2.0338 0.9775
1.3179 -5.1410 -2.0339 0.9775
1.7670 -5.0045 -2.0339 0.9775
-3.6018 -3.4237 -2.0338 0.9788
-3.2852 -3.7285 -2.0338 0.9788
-1.7895 -4.6360 -2.0338 0.9788
-1.3729 -4.7760 -2.0338 0.9788
-0.9455 -4.8786 -2.0338 0.9788
-0.0719 -4.9689 -2.0338 0.9788
1.6546 -4.6859 -2.0339 0.9788
2.0621 -4.5214 -2.0339 0.9788
2.4536 -4.3215 -2.0339 0.9788
3.1760 -3.8221 -2.0339 0.9788
-3.3825 -3.2151 -2.0338 0.9798
-2.4206 -3.9898 -2.0338 0.9798
-2.0586 -4.1882 -2.0338 0.9798
-1.6805 -4.3537 -2.0338 0.9798
-1.2893 -4.4851 -2.0338 0.9798
-0.8879 -4.5815 -2.0338 0.9798
-0.4796 -4.6421 -2.0338 0.9798
0.3450 -4.6540 -2.0339 0.9798
1.1589 -4.5206 -2.0339 0.9798
1.9366 -4.2460 -2.0339 0.9798
2.3041 -4.0583 -2.0339 0.9798
2.6537 -3.8389 -2.0339 0.9798
2.9826 -3.5894 -2.0339 0.9798
-2.9048 -3.2967 -2.0338 0.9808
-2.2791 -3.7566 -2.0338 0.9808
-1.9382 -3.9433 -2.0338 0.9808
-1.2138 -4.2229 -2.0338 0.9808
-0.8359 -4.3136 -2.0338 0.9808
-0.4516 -4.3706 -2.0338 0.9808
-0.0636 -4.3934 -2.0339 0.9808
0.3248 -4.3819 -2.0339 0.9808
1.0911 -4.2563 -2.0339 0.9808
1.4629 -4.1432 -2.0339 0.9808
1.8233 -3.9977 -2.0339 0.9808
2.1694 -3.8210 -2.0339 0.9808
2.4986 -3.6144 -2.0339 0.9808
-3.0052 -2.8566 -2.0338 0.9817
-2.7411 -3.1110 -2.0338 0.9817
-1.1455 -3.9849 -2.0338 0.9817
-0.4261 -4.1243 -2.0339 0.9817
-0.0600 -4.1459 -2.0339 0.9817
0.6707 -4.0917 -2.0339 0.9817
1.7206 -3.7725 -2.0339 0.9817
2.0472 -3.6057 -2.0339 0.9817
2.3578 -3.4107 -2.0339 0.9817
-2.3218 -3.1590 -2.0338 0.9825
-2.0335 -3.3518 -2.0338 0.9825
-1.7294 -3.5184 -2.0338 0.9825
-1.4118 -3.6575 -2.0338 0.9825
-1.0830 -3.7679 -2.0338 0.9825
-0.7459 -3.8488 -2.0339 0.9825
0.2898 -3.9097 -2.0339 0.9825
0.9735 -3.7977 -2.0339 0.9825
1.9357 -3.4093 -2.0339 0.9825
-2.6915 -2.5584 -2.0338 0.9832
-2.4549 -2.7862 -2.0338 0.9832
-2.1991 -2.9922 -2.0338 0.9832
-1.9262 -3.1748 -2.0338 0.9832
-0.3816 -3.6938 -2.0339 0.9832
0.2745 -3.7033 -2.0339 0.9832
0.6007 -3.6646 -2.0339 0.9832
1.5409 -3.3787 -2.0339 0.9832
1.8334 -3.2293 -2.0339 0.9832
2.3733 -2.8561 -2.0339 0.9832
-2.5533 -2.4270 -2.0339 0.9839
-2.3288 -2.6431 -2.0339 0.9839
-1.5540 -3.1615 -2.0339 0.9839
-1.2686 -3.2864 -2.0339 0.9839
-0.9732 -3.3857 -2.0339 0.9839
-0.3620 -3.5041 -2.0339 0.9839
-0.0510 -3.5224 -2.0339 0.9839
1.4618 -3.2051 -2.0339 0.9839
1.7393 -3.0635 -2.0339 0.9839
