ply
format ascii 1.0
element vertex 239
property float32 x
property float32 y
property float32 z
property float32 I
end_header
3.0634 18.7060 3.3423 0.9259
-12.1462 13.1586 3.1576 0.9298
3.0600 18.6852 2.9006 0.9262
-11.5188 12.4790 2.6016 0.9336
3.0938 18.8919 2.4929 0.9257
1.3569 18.9327 2.4718 0.9263
-11.3488 12.2947 2.1788 0.9347
2.8727 17.5419 1.9088 0.9310
-11.4862 12.4437 1.8185 0.9341
2.8881 17.6364 1.5129 0.9308
1.3608 18.9879 1.6115 0.9264
2.8887 17.6396 1.1084 0.9309
1.3595 18.9686 1.1793 0.9266
-12.0712 13.0774 1.1036 0.9312
2.8300 17.2815 0.6905 0.9323
1.3718 19.1409 0.7567 0.9261
-11.7845 12.7668 0.6851 0.9328
2.9294 17.8880 0.3062 0.9301
-12.0221 13.0243 -0.0998 0.9316
-12.0143 13.0158 -0.8983 0.9315
-17.4634 5.0358 -0.9217 0.9298
-12.0637 13.0693 -1.3041 0.9312
-0.8518 7.7129 -0.7450 0.9693
-1.5379 7.5566 -0.7403 0.9695
-17.5359 5.0567 -1.7521 0.9293
4.2879 16.5787 -2.0341 0.9333
2.7674 16.8991 -2.0341 0.9333
1.2241 17.0803 -2.0341 0.9333
-0.3292 17.1208 -2.0341 0.9333
-0.8279 7.4964 -0.8959 0.9701
-6.3883 15.8871 -2.0340 0.9333
-9.1515 14.4724 -2.0340 0.9334
-10.4256 13.5831 -2.0340 0.9334
-11.6139 12.5820 -2.0339 0.9334
-13.6944 10.2781 -2.0339 0.9334
-14.5696 8.9943 -2.0339 0.9334
-15.3248 7.6365 -2.0339 0.9334
-15.9537 6.2158 -2.0338 0.9334
-16.4513 4.7440 -2.0338 0.9334
-16.8134 3.2332 -2.0338 0.9334
-17.0371 1.6957 -2.0338 0.9334
3.5947 13.8986 -2.0341 0.9437
-0.8229 7.4507 -1.0621 0.9702
-2.2095 7.3626 -1.0892 0.9694
-6.5408 12.7785 -2.0340 0.9437
-7.6722 12.1329 -2.0340 0.9437
-8.7403 11.3874 -2.0340 0.9437
-10.6525 9.6221 -2.0339 0.9437
-12.2145 7.5404 -2.0339 0.9437
-12.8476 6.4021 -2.0339 0.9437
-13.3750 5.2111 -2.0338 0.9437
-13.7921 3.9771 -2.0338 0.9437
-14.2833 1.4216 -2.0338 0.9437
3.0917 11.9538 -2.0341 0.9512
1.9954 12.1848 -2.0341 0.9512
0.8827 12.3155 -2.0340 0.9512
-0.2373 12.3447 -2.0340 0.9512
-0.8195 7.4196 -1.2297 0.9702
-2.1740 7.2443 -1.2460 0.9698
-4.6062 11.4553 -2.0340 0.9512
-7.5173 9.7941 -2.0339 0.9512
-8.3742 9.0722 -2.0339 0.9512
-9.8744 7.4111 -2.0339 0.9512
-10.5055 6.4854 -2.0339 0.9512
-11.0500 5.5063 -2.0339 0.9512
-11.5036 4.4820 -2.0339 0.9512
-11.8625 3.4207 -2.0338 0.9512
-12.1236 2.3313 -2.0338 0.9512
-12.2849 1.2227 -2.0338 0.9512
2.7098 10.4769 -2.0340 0.9569
1.7489 10.6793 -2.0340 0.9569
-0.2080 10.8195 -2.0340 0.9569
-0.8059 7.2965 -1.3798 0.9706
-1.4711 7.2281 -1.3865 0.9704
-6.5886 8.5840 -2.0339 0.9569
-8.6545 6.4954 -2.0339 0.9569
-9.2076 5.6842 -2.0339 0.9569
-9.6849 4.8261 -2.0339 0.9569
-10.6258 2.0433 -2.0338 0.9569
2.4095 9.3160 -2.0340 0.9614
0.6879 9.5979 -2.0340 0.9614
-0.1850 9.6207 -2.0340 0.9614
-0.8061 7.2982 -1.5521 0.9704
-1.4483 7.1162 -1.5351 0.9707
-2.0848 6.9472 -1.5332 0.9708
-4.3843 8.5654 -2.0340 0.9614
-5.1427 8.1327 -2.0339 0.9614
-7.1404 6.4497 -2.0339 0.9614
-7.6957 5.7758 -2.0339 0.9614
-9.5743 0.9529 -2.0338 0.9614
2.1671 8.3788 -2.0340 0.9651
1.3986 8.5407 -2.0340 0.9651
0.6187 8.6323 -2.0340 0.9651
-0.1664 8.6528 -2.0340 0.9651
-2.1665 7.2195 -1.7715 0.9695
-3.2287 8.0295 -2.0340 0.9651
-3.9432 7.7037 -2.0340 0.9651
-7.3638 4.5460 -2.0339 0.9651
-8.4981 1.6342 -2.0338 0.9651
-8.6112 0.8571 -2.0338 0.9651
1.9671 7.6055 -2.0340 0.9681
-0.8157 7.3858 -1.9239 0.9698
-2.9307 7.2885 -2.0340 0.9681
-3.5793 6.9928 -2.0339 0.9681
-4.7830 6.2315 -2.0339 0.9681
-5.3282 5.7723 -2.0339 0.9681
-6.2827 4.7154 -2.0339 0.9681
-7.0307 3.5035 -2.0339 0.9681
-7.3193 2.8517 -2.0339 0.9681
-7.5477 2.1765 -2.0339 0.9681
-7.7138 1.4833 -2.0339 0.9681
-7.8165 0.7780 -2.0338 0.9681
0.5136 7.1665 -2.0340 0.9706
-0.1381 7.1835 -2.0340 0.9706
-0.7887 7.1414 -2.0340 0.9706
-2.0651 6.8816 -2.0340 0.9706
-3.8399 6.0725 -2.0339 0.9706
-4.3745 5.6994 -2.0339 0.9706
-5.7461 4.3127 -2.0339 0.9706
-6.1134 3.7740 -2.0339 0.9706
-6.6943 2.6082 -2.0339 0.9706
-6.9032 1.9906 -2.0339 0.9706
-7.0551 1.3567 -2.0339 0.9706
0.4727 6.5959 -2.0340 0.9727
-1.3188 6.4800 -2.0340 0.9727
-1.9007 6.3337 -2.0340 0.9727
-3.0130 5.8864 -2.0339 0.9727
-3.5342 5.5890 -2.0339 0.9727
-4.0263 5.2456 -2.0339 0.9727
-4.4852 4.8591 -2.0339 0.9727
-4.9071 4.4325 -2.0339 0.9727
-5.2887 3.9694 -2.0339 0.9727
-6.1614 2.4006 -2.0339 0.9727
-6.4935 1.2487 -2.0339 0.9727
-6.5800 0.6549 -2.0339 0.9727
1.5322 5.9240 -2.0340 0.9745
-0.6717 6.0819 -2.0340 0.9745
-1.7587 5.8606 -2.0340 0.9745
-2.2828 5.6771 -2.0339 0.9745
-2.7880 5.4468 -2.0339 0.9745
-3.2702 5.1716 -2.0339 0.9745
-3.7255 4.8538 -2.0339 0.9745
-4.5406 4.1014 -2.0339 0.9745
-5.7012 2.2213 -2.0339 0.9745
-5.8791 1.6953 -2.0339 0.9745
-6.0085 1.1554 -2.0339 0.9745
1.4242 5.5065 -2.0340 0.9761
-2.1219 5.2770 -2.0339 0.9761
-2.5915 5.0629 -2.0339 0.9761
-4.2207 3.8124 -2.0339 0.9761
-4.5488 3.4141 -2.0339 0.9761
-4.8396 2.9876 -2.0339 0.9761
-5.0904 2.5366 -2.0339 0.9761
-5.4648 1.5758 -2.0339 0.9761
-5.5851 1.0740 -2.0339 0.9761
-5.6594 0.5633 -2.0339 0.9761
1.3290 5.1385 -2.0340 0.9775
0.3794 5.2940 -2.0340 0.9775
-0.5827 5.2755 -2.0340 0.9775
-1.9801 4.9243 -2.0339 0.9775
-2.4183 4.7246 -2.0339 0.9775
-2.8366 4.4859 -2.0339 0.9775
-3.2315 4.2103 -2.0339 0.9775
-3.5999 3.9000 -2.0339 0.9775
-4.5161 2.7880 -2.0339 0.9775
-4.7503 2.3671 -2.0339 0.9775
-5.2812 0.5256 -2.0339 0.9775
0.8032 4.9043 -2.0340 0.9787
0.3553 4.9569 -2.0340 0.9787
-0.9911 4.8698 -2.0339 0.9788
-1.8540 4.6108 -2.0339 0.9788
-2.6561 4.2003 -2.0339 0.9788
-3.3707 3.6517 -2.0339 0.9788
-3.6879 3.3311 -2.0339 0.9788
-3.9746 2.9830 -2.0339 0.9788
-4.4478 2.2164 -2.0339 0.9788
-2.1145 0.2104 -0.8697 0.9909
1.1686 4.5183 -2.0340 0.9798
0.3336 4.6551 -2.0340 0.9798
-1.3414 4.4700 -2.0339 0.9798
-1.7411 4.3300 -2.0339 0.9798
-2.1264 4.1543 -2.0339 0.9798
-3.1654 3.4293 -2.0339 0.9798
-3.7325 2.8014 -2.0339 0.9798
-3.9711 2.4515 -2.0339 0.9798
-1.9050 0.3663 -0.8454 0.9916
0.7102 4.3363 -2.0340 0.9808
0.3141 4.3828 -2.0340 0.9808
-0.0845 4.3932 -2.0339 0.9808
-1.2630 4.2086 -2.0339 0.9808
-1.6393 4.0768 -2.0339 0.9808
-2.6754 3.4856 -2.0339 0.9808
-3.7389 2.3081 -2.0339 0.9808
-3.9327 1.9597 -2.0339 0.9808
-1.5476 0.4462 -0.7456 0.9929
-1.6037 0.3083 -0.7559 0.9928
-1.6068 0.1599 -0.7475 0.9929
0.6701 4.0920 -2.0340 0.9817
0.2964 4.1359 -2.0339 0.9817
-0.0797 4.1457 -2.0339 0.9817
-0.4552 4.1214 -2.0339 0.9817
-0.8269 4.0631 -2.0339 0.9817
-1.1918 3.9715 -2.0339 0.9817
-1.5469 3.8471 -2.0339 0.9817
-2.5246 3.2892 -2.0339 0.9817
-3.3162 2.4890 -2.0339 0.9817
-1.3535 0.1347 -0.6672 0.9940
-0.4304 3.8969 -2.0339 0.9825
-0.7819 3.8419 -2.0339 0.9825
-1.1269 3.7551 -2.0339 0.9825
-1.4627 3.6375 -2.0339 0.9825
-1.7864 3.4900 -2.0339 0.9825
-3.5090 1.7486 -2.0339 0.9825
-1.1829 0.2274 -0.6249 0.9946
-1.2003 0.1194 -0.6258 0.9946
0.6002 3.6648 -2.0339 0.9832
-0.0714 3.7129 -2.0339 0.9832
-0.4077 3.6911 -2.0339 0.9832
-1.0674 3.5568 -2.0339 0.9832
-1.6920 3.3056 -2.0339 0.9832
-1.9847 3.1386 -2.0339 0.9832
-2.5188 2.7287 -2.0339 0.9832
-2.7557 2.4892 -2.0339 0.9832
-2.9700 2.2291 -2.0339 0.9832
-3.1599 1.9507 -2.0339 0.9832
-1.0161 0.3959 -0.5973 0.9950
-1.0621 0.2042 -0.5924 0.9951
-1.0793 0.1074 -0.5940 0.9951
-0.0677 3.5222 -2.0339 0.9839
-0.3867 3.5016 -2.0339 0.9839
-1.0126 3.3742 -2.0339 0.9839
-2.1449 2.7945 -2.0339 0.9839
-2.6143 2.3614 -2.0339 0.9839
-2.8175 2.1146 -2.0339 0.9839
-2.9976 1.8505 -2.0339 0.9839
-0.9131 0.4550 -0.5890 0.9953
-0.9405 0.3664 -0.5827 0.9953
-0.9576 0.2761 -0.5754 0.9954
-0.9880 0.0983 -0.5733 0.9954
