ply
format ascii 1.0
element vertex 214
property float32 x
property float32 y
property float32 z
property float32 I
end_header
-12.8221 12.9275 3.2105 0.9287
-12.3779 12.4797 2.6927 0.9313
-11.7716 11.8684 2.1768 0.9348
-11.1908 13.5424 1.8865 0.9318
-12.1918 12.2920 1.8591 0.9327
-11.4149 13.8136 1.5170 0.9306
-11.9768 12.0753 1.4397 0.9340
-12.1879 14.7490 1.1865 0.9262
-12.0080 12.1067 1.0574 0.9339
-12.4484 15.0642 0.7706 0.9248
-16.5208 5.7696 -0.8875 0.9323
-16.0045 5.5892 -1.6275 0.9341
-10.9073 13.1993 -2.0340 0.9334
-12.0579 12.1570 -2.0339 0.9334
-13.1093 11.0147 -2.0339 0.9334
-14.0530 9.7820 -2.0339 0.9334
-14.8811 8.4688 -2.0339 0.9334
-16.1644 5.6451 -2.0338 0.9334
-16.6091 4.1579 -2.0338 0.9334
-16.9172 2.6363 -2.0338 0.9334
-17.0863 1.0931 -2.0338 0.9334
-17.0029 -2.0073 -2.0337 0.9334
-15.1834 -7.9107 -2.0337 0.9334
-12.2212 -7.8510 -1.7254 0.9432
-13.5070 -10.5201 -2.0337 0.9334
-9.1441 11.0657 -2.0339 0.9437
-10.1087 10.1919 -2.0339 0.9437
-10.9903 9.2343 -2.0339 0.9437
-11.7814 8.2008 -2.0339 0.9437
-12.4756 7.0999 -2.0339 0.9437
-13.0673 5.9406 -2.0339 0.9437
-13.9244 3.4857 -2.0338 0.9437
-14.3246 0.9164 -2.0338 0.9437
-14.3486 -0.3848 -2.0338 0.9437
-14.2546 -1.6829 -2.0338 0.9437
-13.7170 -4.2269 -2.0337 0.9437
-13.2777 -5.4519 -2.0337 0.9437
-11.3239 -8.8197 -2.0337 0.9437
-9.4525 7.9422 -2.0339 0.9512
-10.1330 7.0534 -2.0339 0.9512
-10.7301 6.1065 -2.0339 0.9512
-11.2390 5.1095 -2.0339 0.9512
-11.6555 4.0705 -2.0338 0.9512
-12.1984 1.9009 -2.0338 0.9512
-12.3204 0.7882 -2.0338 0.9512
-12.0787 -2.5520 -2.0338 0.9512
-11.4201 -4.6891 -2.0338 0.9512
-10.9484 -5.7043 -2.0337 0.9512
-10.3866 -6.6724 -2.0337 0.9512
-9.0124 -8.4367 -2.0337 0.9512
-7.6202 7.6829 -2.0339 0.9569
-8.2847 6.9610 -2.0339 0.9569
-10.6914 1.6661 -2.0338 0.9569
-10.7983 0.6908 -2.0338 0.9569
-10.5866 -2.2367 -2.0338 0.9569
-10.3404 -3.1864 -2.0338 0.9569
-10.0093 -4.1098 -2.0338 0.9569
-9.5958 -4.9996 -2.0338 0.9569
-9.1035 -5.8482 -2.0338 0.9569
-8.5364 -6.6487 -2.0338 0.9569
-7.8991 -7.3946 -2.0338 0.9569
-6.1293 7.4173 -2.0339 0.9614
-7.3668 6.1898 -2.0339 0.9614
-8.7592 3.9821 -2.0339 0.9614
-8.9004 -3.6546 -2.0338 0.9614
-8.0950 -5.2003 -2.0338 0.9614
-7.5907 -5.9121 -2.0338 0.9614
-6.0943 6.1444 -2.0339 0.9651
-6.6257 5.5671 -2.0339 0.9651
-7.1027 4.9440 -2.0339 0.9651
-7.8780 3.5815 -2.0339 0.9651
-8.3948 2.1015 -2.0339 0.9651
-8.6361 0.5525 -2.0338 0.9651
-8.6506 -0.2320 -2.0338 0.9651
-8.4667 -1.7888 -2.0338 0.9651
-8.2699 -2.5484 -2.0338 0.9651
-6.0143 5.0533 -2.0339 0.9681
-6.8271 3.8853 -2.0339 0.9681
-7.1510 3.2510 -2.0339 0.9681
-7.4160 2.5899 -2.0339 0.9681
-7.6201 1.9075 -2.0339 0.9681
-7.7615 1.2095 -2.0338 0.9681
-7.8391 0.5015 -2.0338 0.9681
-7.8009 -0.9210 -2.0338 0.9681
-7.5067 -2.3132 -2.0338 0.9681
-7.2663 -2.9836 -2.0338 0.9681
-5.7344 -5.3681 -2.0338 0.9681
-5.0595 5.1011 -2.0339 0.9706
-6.2441 3.5535 -2.0339 0.9706
-6.5404 2.9733 -2.0339 0.9706
-6.7827 2.3687 -2.0339 0.9706
-6.9694 1.7446 -2.0339 0.9706
-7.1697 0.4587 -2.0338 0.9706
-7.1348 -0.8423 -2.0338 0.9706
-6.6458 -2.7288 -2.0338 0.9706
-6.3714 -3.3196 -2.0338 0.9706
-6.0445 -3.8830 -2.0338 0.9706
-5.6679 -4.4145 -2.0338 0.9706
-5.0627 4.2539 -2.0339 0.9727
-5.4272 3.7778 -2.0339 0.9727
-5.7471 3.2707 -2.0339 0.9727
-6.5989 0.4222 -2.0338 0.9727
-6.6100 -0.1773 -2.0338 0.9727
-6.5668 -0.7753 -2.0338 0.9727
-6.4695 -1.3669 -2.0338 0.9727
-6.1168 -2.5116 -2.0338 0.9727
-5.8642 -3.0553 -2.0338 0.9727
-5.2167 -4.0631 -2.0338 0.9727
-4.8273 -4.5189 -2.0338 0.9727
-3.8977 4.7167 -2.0339 0.9745
-4.6846 3.9361 -2.0339 0.9745
-5.0219 3.4956 -2.0339 0.9745
-5.5701 2.5322 -2.0339 0.9745
-5.7765 2.0173 -2.0339 0.9745
-5.9355 1.4858 -2.0339 0.9745
-6.0456 0.9421 -2.0339 0.9745
-5.9864 -1.2648 -2.0338 0.9745
-5.8472 -1.8018 -2.0338 0.9745
-4.4668 -4.1814 -2.0338 0.9745
-3.6230 4.3843 -2.0339 0.9761
-4.0052 4.0381 -2.0339 0.9761
-4.6680 3.2493 -2.0339 0.9761
-4.9431 2.8131 -2.0339 0.9761
-5.1775 2.3538 -2.0339 0.9761
-5.3694 1.8752 -2.0339 0.9761
-5.5171 1.3811 -2.0339 0.9761
-5.6758 0.3631 -2.0339 0.9761
-5.6853 -0.1525 -2.0338 0.9761
-5.5645 -1.1757 -2.0338 0.9761
-5.4351 -1.6748 -2.0338 0.9761
-5.2611 -2.1603 -2.0338 0.9761
-4.7850 -3.0740 -2.0338 0.9761
-3.3809 4.0913 -2.0339 0.9775
-3.7375 3.7683 -2.0339 0.9775
-4.0635 3.4142 -2.0339 0.9775
-4.8315 2.1965 -2.0339 0.9775
-5.0106 1.7498 -2.0339 0.9775
-5.2440 0.8172 -2.0339 0.9775
-5.3054 -0.1423 -2.0339 0.9775
-4.4652 -2.8685 -2.0338 0.9775
-4.1871 -3.2612 -2.0338 0.9775
-3.4996 3.5284 -2.0339 0.9788
-4.3190 2.4580 -2.0339 0.9788
-2.1148 0.3295 -0.8760 0.9908
-2.1227 -0.0570 -0.8691 0.9909
-2.1094 -0.2491 -0.8693 0.9909
-2.1213 -0.4482 -0.8874 0.9907
-4.7490 -1.4634 -2.0338 0.9788
-4.1810 -2.6859 -2.0338 0.9788
-3.9205 -3.0536 -2.0338 0.9788
-3.6279 -3.3961 -2.0338 0.9788
-2.9728 3.5976 -2.0339 0.9798
-4.0560 2.3083 -2.0339 0.9798
-4.2484 1.9314 -2.0339 0.9798
-4.4058 1.5387 -2.0339 0.9798
-1.9152 0.4794 -0.8604 0.9914
-1.9044 0.2967 -0.8400 0.9916
-1.9189 -0.0515 -0.8366 0.9917
-1.9037 -0.4022 -0.8480 0.9915
-2.0824 -0.6417 -0.9497 0.9905
-4.1387 -2.1563 -2.0338 0.9798
-3.6818 -2.8676 -2.0338 0.9798
-3.4069 -3.1893 -2.0338 0.9798
-3.0943 3.1197 -2.0339 0.9808
-3.3641 2.8266 -2.0339 0.9808
-1.7953 0.6269 -0.8802 0.9917
-1.5750 0.3942 -0.7515 0.9929
-1.6102 0.2509 -0.7543 0.9928
-1.5960 -0.3372 -0.7551 0.9928
-1.5332 -0.4725 -0.7426 0.9930
-3.8967 -2.0302 -2.0338 0.9808
-3.6968 -2.3748 -2.0338 0.9808
-3.2077 -3.0028 -2.0338 0.9808
-2.6413 3.1963 -2.0339 0.9817
-2.9199 2.9439 -2.0339 0.9817
-3.4031 2.3688 -2.0339 0.9817
-1.3514 0.0864 -0.6642 0.9940
-1.3439 -0.0361 -0.6595 0.9940
-1.3309 -0.2812 -0.6672 0.9940
-1.2923 -0.3983 -0.6633 0.9940
-3.2711 -2.5478 -2.0338 0.9817
-2.4974 3.0222 -2.0339 0.9825
-2.7609 2.7836 -2.0339 0.9825
-3.2178 2.2398 -2.0339 0.9825
-3.4074 1.9392 -2.0339 0.9825
-1.1452 0.5206 -0.6526 0.9943
-1.1352 0.3964 -0.6238 0.9946
-1.1928 0.1858 -0.6263 0.9946
-1.1998 0.0767 -0.6237 0.9946
-1.1962 -0.0321 -0.6208 0.9946
-1.1766 -0.2486 -0.6239 0.9946
-1.1457 -0.3531 -0.6220 0.9946
-1.1177 -0.4590 -0.6268 0.9946
-3.0930 -2.4090 -2.0338 0.9825
-2.8620 -2.6793 -2.0338 0.9825
-2.3655 2.8626 -2.0339 0.9832
-2.8432 2.3889 -2.0339 0.9832
-3.0478 2.1215 -2.0339 0.9832
-1.0263 0.3584 -0.5954 0.9951
-1.0708 0.1668 -0.5936 0.9951
-1.0771 -0.1272 -0.5941 0.9951
-1.0343 -0.3188 -0.5928 0.9951
-1.0689 -0.5570 -0.6602 0.9945
-3.1243 -2.0071 -2.0339 0.9832
-2.9296 -2.2818 -2.0338 0.9832
-2.2441 2.7156 -2.0339 0.9839
-2.8913 2.0126 -2.0339 0.9839
-0.9245 0.4203 -0.5863 0.9953
-0.9485 0.3312 -0.5801 0.9954
-0.9898 0.0633 -0.5726 0.9954
-0.9865 -0.1165 -0.5735 0.9954
-0.9727 -0.2055 -0.5740 0.9954
-0.9551 -0.2944 -0.5770 0.9954
-2.9638 -1.9040 -2.0339 0.9839
