ply
format ascii 1.0
element vertex 175
property float32 x
property float32 y
property float32 z
property float32 I
end_header
14.9642 9.2052 -0.8910 0.9321
14.1524 8.7058 -1.2183 0.9355
14.3828 8.8475 -1.6212 0.9344
16.9480 -2.4445 -2.0340 0.9333
17.0964 -0.9653 -2.0340 0.9333
17.1158 0.5211 -2.0341 0.9333
17.0062 2.0036 -2.0341 0.9333
16.7684 3.4711 -2.0341 0.9333
16.4043 4.9124 -2.0341 0.9333
15.3087 7.6734 -2.0341 0.9333
14.5856 8.9723 -2.0341 0.9333
13.7525 10.2035 -2.0341 0.9333
12.8158 11.3579 -2.0341 0.9333
5.4612 16.2301 -2.0341 0.9333
14.3326 -0.8093 -2.0340 0.9437
14.0577 2.9100 -2.0341 0.9437
13.3435 5.2955 -2.0341 0.9437
12.2277 7.5218 -2.0341 0.9437
10.7439 9.5218 -2.0341 0.9437
8.9369 11.2352 -2.0341 0.9437
12.2203 -1.7626 -2.0340 0.9512
12.3271 -0.6960 -2.0340 0.9512
12.3412 0.3758 -2.0340 0.9512
12.2621 1.4447 -2.0340 0.9512
12.0907 2.5028 -2.0340 0.9512
11.0381 5.5328 -2.0341 0.9512
9.2405 8.1894 -2.0341 0.9512
8.4954 8.9600 -2.0341 0.9512
10.7105 -1.5448 -2.0340 0.9569
10.8164 0.3293 -2.0340 0.9569
10.7471 1.2662 -2.0340 0.9569
10.5969 2.1936 -2.0340 0.9569
10.0584 3.9918 -2.0340 0.9569
9.6743 4.8492 -2.0340 0.9569
8.6908 6.4481 -2.0340 0.9569
7.4458 7.8530 -2.0341 0.9569
5.1717 9.5058 -2.0341 0.9569
9.6071 -0.5424 -2.0340 0.9614
9.6180 0.2929 -2.0340 0.9614
9.5564 1.1259 -2.0340 0.9614
9.2181 2.7604 -2.0340 0.9614
8.9440 3.5496 -2.0340 0.9614
8.1961 5.0418 -2.0340 0.9614
7.7279 5.7336 -2.0340 0.9614
5.3145 8.0219 -2.0340 0.9614
4.5987 8.4526 -2.0340 0.9614
3.0688 9.1201 -2.0340 0.9614
8.6406 -0.4879 -2.0340 0.9651
8.5950 1.0127 -2.0340 0.9651
8.4748 1.7543 -2.0340 0.9651
8.2907 2.4827 -2.0340 0.9651
8.0442 3.1924 -2.0340 0.9651
7.7370 3.8781 -2.0340 0.9651
6.9504 5.1568 -2.0340 0.9651
5.9547 6.2803 -2.0340 0.9651
5.3876 6.7731 -2.0340 0.9651
4.7798 7.2149 -2.0340 0.9651
4.1361 7.6022 -2.0340 0.9651
2.7601 8.2026 -2.0340 0.9651
7.6926 1.5924 -2.0340 0.9681
7.5255 2.2536 -2.0340 0.9681
7.0229 3.5202 -2.0340 0.9681
5.8792 5.2104 -2.0340 0.9681
5.4052 5.7007 -2.0340 0.9681
4.8904 6.1480 -2.0340 0.9681
3.7543 6.9006 -2.0340 0.9681
2.5054 7.4456 -2.0340 0.9681
6.6782 2.6503 -2.0340 0.9706
6.4232 3.2195 -2.0340 0.9706
6.1197 3.7645 -2.0340 0.9706
5.7702 4.2811 -2.0340 0.9706
5.3771 4.7655 -2.0340 0.9706
4.9436 5.2138 -2.0340 0.9706
3.4337 6.3113 -2.0340 0.9706
2.8734 6.5854 -2.0340 0.9706
6.5674 0.7738 -2.0340 0.9727
6.1465 2.4393 -2.0340 0.9727
5.9118 2.9633 -2.0340 0.9727
5.6325 3.4648 -2.0340 0.9727
4.5500 4.7988 -2.0340 0.9727
4.1166 5.1753 -2.0340 0.9727
3.6523 5.5129 -2.0340 0.9727
3.1604 5.8089 -2.0340 0.9727
2.1090 6.2676 -2.0340 0.9727
6.0769 0.7160 -2.0340 0.9745
5.9919 1.2403 -2.0340 0.9745
5.8618 1.7554 -2.0340 0.9745
5.6875 2.2571 -2.0340 0.9745
5.2118 3.2060 -2.0340 0.9745
4.2101 4.4403 -2.0340 0.9745
3.8092 4.7888 -2.0340 0.9745
3.3795 5.1011 -2.0340 0.9745
2.9243 5.3750 -2.0340 0.9745
2.4471 5.6084 -2.0340 0.9745
5.6294 -0.8120 -2.0339 0.9761
5.6786 -0.3206 -2.0339 0.9761
5.6850 0.1731 -2.0340 0.9761
5.5696 1.1529 -2.0340 0.9761
5.4486 1.6316 -2.0340 0.9761
4.5678 3.3890 -2.0340 0.9761
3.1413 4.7416 -2.0340 0.9761
5.2532 -0.7577 -2.0339 0.9775
5.3051 0.1615 -2.0339 0.9775
5.2711 0.6210 -2.0340 0.9775
5.0845 1.5226 -2.0340 0.9775
4.9333 1.9579 -2.0340 0.9775
4.5208 2.7809 -2.0340 0.9775
4.2625 3.1625 -2.0340 0.9775
3.9721 3.5203 -2.0340 0.9775
3.6519 3.8516 -2.0340 0.9775
2.1226 4.8647 -2.0340 0.9775
1.6927 5.0304 -2.0340 0.9775
4.9187 -0.7095 -2.0339 0.9788
4.9618 -0.2802 -2.0339 0.9787
4.9673 0.1512 -2.0339 0.9787
4.9355 0.5815 -2.0339 0.9787
4.8665 1.0073 -2.0340 0.9787
4.2329 2.6039 -2.0340 0.9787
3.7193 3.2962 -2.0340 0.9787
3.4194 3.6063 -2.0340 0.9787
3.0937 3.8893 -2.0340 0.9787
2.3750 4.3654 -2.0340 0.9787
1.5849 4.7102 -2.0340 0.9787
4.6596 -0.2631 -2.0339 0.9798
4.6648 0.1420 -2.0339 0.9798
4.6350 0.5461 -2.0339 0.9798
4.4708 1.3388 -2.0340 0.9798
4.3379 1.7215 -2.0340 0.9798
3.9751 2.4453 -2.0340 0.9798
3.7481 2.7808 -2.0340 0.9798
2.5775 3.8907 -2.0340 0.9798
2.2304 4.0996 -2.0340 0.9798
1.8664 4.2775 -2.0340 0.9798
1.4884 4.4233 -2.0340 0.9798
4.3920 0.1337 -2.0339 0.9808
4.3639 0.5141 -2.0339 0.9808
4.3029 0.8907 -2.0339 0.9808
4.2094 1.2605 -2.0340 0.9808
3.9282 1.9690 -2.0340 0.9808
3.7427 2.3023 -2.0340 0.9808
3.5289 2.6182 -2.0340 0.9808
3.2885 2.9144 -2.0340 0.9808
2.4268 3.6631 -2.0340 0.9808
1.7573 4.0274 -2.0340 0.9808
4.1399 -0.2338 -2.0339 0.9817
4.1445 0.1262 -2.0339 0.9817
3.8541 1.5296 -2.0340 0.9817
3.7069 1.8580 -2.0340 0.9817
3.5318 2.1726 -2.0340 0.9817
3.1032 2.7502 -2.0340 0.9817
1.9816 3.6423 -2.0340 0.9817
1.6582 3.8004 -2.0340 0.9817
1.3224 3.9300 -2.0340 0.9817
2.0954 -0.3022 -1.0983 0.9905
2.0848 0.2456 -1.0891 0.9906
2.1075 0.4362 -1.1165 0.9903
3.7559 1.1247 -2.0339 0.9825
3.3394 2.0542 -2.0340 0.9825
3.1486 2.3361 -2.0340 0.9825
2.4407 3.0684 -2.0340 0.9825
2.1654 3.2684 -2.0340 0.9825
1.8737 3.4439 -2.0340 0.9825
1.5679 3.5935 -2.0340 0.9825
2.0510 3.0958 -2.0340 0.9832
1.7748 3.2621 -2.0340 0.9832
1.4851 3.4037 -2.0340 0.9832
1.7136 -0.2472 -0.9996 0.9920
1.7235 -0.0973 -0.9966 0.9921
1.7174 0.2023 -0.9984 0.9920
1.7146 0.3549 -1.0109 0.9919
1.7423 0.6914 -1.0822 0.9914
3.0006 1.8458 -2.0339 0.9839
2.1930 2.7570 -2.0340 0.9839
1.9457 2.9369 -2.0340 0.9839
1.1235 3.3389 -2.0339 0.9839
