ply
format ascii 1.0
element vertex 183
property float32 x
property float32 y
property float32 z
property float32 I
end_header
-13.0175 12.0589 2.3107 0.9309
-13.5064 12.5118 1.5585 0.9288
-16.3523 5.1280 -1.2566 0.9336
-12.0065 -7.9131 -1.0543 0.9440
-12.5612 11.6361 -2.0339 0.9334
-13.5420 10.4781 -2.0339 0.9334
-15.1777 7.9249 -2.0339 0.9334
-15.8196 6.5498 -2.0338 0.9334
-16.3372 5.1233 -2.0338 0.9334
-16.9548 -2.3793 -2.0337 0.9334
-15.7329 -6.7521 -2.0337 0.9334
-11.7952 -7.7738 -1.6780 0.9447
-10.5307 9.7552 -2.0339 0.9437
-11.3530 8.7843 -2.0339 0.9437
-12.0861 7.7446 -2.0339 0.9437
-12.7243 6.6439 -2.0339 0.9437
-13.2625 5.4911 -2.0338 0.9437
-14.2391 1.8118 -2.0338 0.9437
-14.2143 -1.9947 -2.0338 0.9437
-13.9818 -3.2455 -2.0337 0.9437
-13.1900 -5.6608 -2.0337 0.9437
-11.9845 -7.8986 -2.0337 0.9437
-11.2381 -8.9287 -2.0337 0.9437
-9.0573 8.3903 -2.0339 0.9512
-10.3951 6.6610 -2.0339 0.9512
-11.4069 4.7228 -2.0339 0.9512
-11.7802 3.6942 -2.0338 0.9512
-12.2469 1.5583 -2.0338 0.9512
-12.3367 0.4678 -2.0338 0.9512
-12.0256 -2.7914 -2.0338 0.9512
-10.3078 -6.7935 -2.0337 0.9512
-9.6658 -7.6796 -2.0337 0.9512
-9.9976 4.1394 -2.0339 0.9569
-10.8064 -0.5490 -2.0338 0.9569
-10.7153 -1.5037 -2.0338 0.9569
-10.5400 -2.4465 -2.0338 0.9569
-9.9431 -4.2673 -2.0338 0.9569
-9.0344 -5.9543 -2.0338 0.9569
-8.4717 -6.7309 -2.0338 0.9569
-7.0588 6.5390 -2.0339 0.9614
-7.6100 5.8882 -2.0339 0.9614
-8.1014 5.1912 -2.0339 0.9614
-8.5292 4.4535 -2.0339 0.9614
-9.1810 2.8791 -2.0339 0.9614
-9.3997 2.0549 -2.0338 0.9614
-9.6092 -0.4882 -2.0338 0.9614
-9.1429 -2.9968 -2.0338 0.9614
-8.8416 -3.7946 -2.0338 0.9614
-8.4708 -4.5625 -2.0338 0.9614
-8.0336 -5.2946 -2.0338 0.9614
-7.5332 -5.9852 -2.0338 0.9614
-7.6712 4.0054 -2.0339 0.9651
-8.4542 1.8481 -2.0338 0.9651
-8.6426 -0.4391 -2.0338 0.9651
-8.5697 -1.2026 -2.0338 0.9651
-8.4295 -1.9567 -2.0338 0.9651
-7.9522 -3.4129 -2.0338 0.9651
-7.6187 -4.1036 -2.0338 0.9651
-6.2128 4.8071 -2.0339 0.9681
-6.6140 4.2381 -2.0339 0.9681
-7.2578 3.0049 -2.0339 0.9681
-7.4953 2.3505 -2.0339 0.9681
-7.6740 1.6776 -2.0339 0.9681
-7.8450 -0.3986 -2.0338 0.9681
-7.7788 -1.0916 -2.0338 0.9681
-7.6516 -1.7761 -2.0338 0.9681
-7.4643 -2.4466 -2.0338 0.9681
-6.9157 -3.7249 -2.0338 0.9681
-6.5587 -4.3226 -2.0338 0.9681
-6.1502 -4.8863 -2.0338 0.9681
-5.2706 4.8825 -2.0339 0.9706
-6.0492 3.8762 -2.0339 0.9706
-6.3686 3.3253 -2.0339 0.9706
-6.6380 2.7483 -2.0339 0.9706
-7.1792 0.2722 -2.0338 0.9706
-7.1751 -0.3645 -2.0338 0.9706
-7.1146 -0.9984 -2.0338 0.9706
-6.9982 -1.6245 -2.0338 0.9706
-6.8268 -2.2377 -2.0338 0.9706
-5.6250 -4.4691 -2.0338 0.9706
-4.8511 4.4938 -2.0339 0.9727
-6.4599 1.4122 -2.0339 0.9727
-6.5596 0.8346 -2.0339 0.9727
-6.6039 -0.3355 -2.0338 0.9727
-6.5482 -0.9189 -2.0338 0.9727
-6.0763 -2.6079 -2.0338 0.9727
-5.8216 -3.1356 -2.0338 0.9727
-5.1772 -4.1133 -2.0338 0.9727
-5.1518 3.3012 -2.0339 0.9745
-5.4238 2.8320 -2.0339 0.9745
-5.6532 2.3406 -2.0339 0.9745
-5.8383 1.8309 -2.0339 0.9745
-5.9774 1.3067 -2.0339 0.9745
-6.0592 -0.8503 -2.0338 0.9745
-5.8141 -1.9057 -2.0338 0.9745
-5.6226 -2.4131 -2.0338 0.9745
-5.3868 -2.9014 -2.0338 0.9745
-5.1088 -3.3670 -2.0338 0.9745
-4.7905 -3.8061 -2.0338 0.9745
-4.1724 3.8651 -2.0339 0.9761
-5.4269 1.7018 -2.0339 0.9761
-5.5562 1.2146 -2.0339 0.9761
-5.6419 0.7179 -2.0339 0.9761
-5.6833 0.2155 -2.0339 0.9761
-5.6800 -0.2886 -2.0338 0.9761
-5.0071 -2.6970 -2.0338 0.9761
-4.7487 -3.1297 -2.0338 0.9761
-4.7046 2.4565 -2.0339 0.9775
-4.9037 2.0303 -2.0339 0.9775
-5.0642 1.5881 -2.0339 0.9775
-5.1849 1.1335 -2.0339 0.9775
-5.2558 -0.7376 -2.0338 0.9775
-5.1698 -1.2000 -2.0338 0.9775
-4.8771 -2.0931 -2.0338 0.9775
-4.6725 -2.5167 -2.0338 0.9775
-4.1554 -3.3015 -2.0338 0.9775
-3.9304 3.0411 -2.0339 0.9788
-4.4051 2.3001 -2.0339 0.9788
-4.7418 1.4870 -2.0339 0.9788
-2.1066 0.2680 -0.8692 0.9909
-2.1227 0.0805 -0.8694 0.9909
-2.1221 -0.1079 -0.8697 0.9909
-4.1492 -2.7346 -2.0338 0.9788
-3.4236 3.1715 -2.0339 0.9798
-4.1369 2.1600 -2.0339 0.9798
-2.0990 0.6582 -0.9587 0.9904
-1.9029 0.4160 -0.8489 0.9915
-1.9187 0.0727 -0.8368 0.9917
-1.9011 -0.4413 -0.8506 0.9915
-3.2235 2.9860 -2.0339 0.9808
-3.4752 2.6889 -2.0339 0.9808
-3.6996 2.3706 -2.0339 0.9808
-4.0597 1.6808 -2.0339 0.9808
-1.5926 0.3481 -0.7546 0.9928
-1.5869 0.0601 -0.7351 0.9930
-1.5928 -0.0810 -0.7382 0.9930
-4.0377 -1.7329 -2.0338 0.9808
-3.8684 -2.0836 -2.0338 0.9808
-3.6687 -2.4179 -2.0338 0.9808
-3.4402 -2.7333 -2.0338 0.9808
-3.0418 2.8178 -2.0339 0.9817
-3.4911 2.2371 -2.0339 0.9817
-3.8310 1.5862 -2.0339 0.9817
-1.2898 0.4044 -0.6630 0.9940
-1.3286 0.2904 -0.6671 0.9940
-1.3517 0.1720 -0.6684 0.9939
-1.3467 0.0510 -0.6611 0.9940
-1.3493 -0.0686 -0.6627 0.9940
-1.3240 -0.3074 -0.6667 0.9940
-3.6504 -1.9662 -2.0338 0.9817
-3.4620 -2.2817 -2.0338 0.9817
-3.2464 -2.5793 -2.0338 0.9817
-3.1007 2.3992 -2.0339 0.9825
-3.4753 1.8146 -2.0339 0.9825
-1.1435 0.3586 -0.6217 0.9946
-1.1746 0.2568 -0.6238 0.9946
-1.1986 0.1525 -0.6268 0.9946
-1.1977 0.0454 -0.6218 0.9946
-1.1989 -0.0609 -0.6228 0.9946
-1.1962 -0.1679 -0.6266 0.9946
-1.1713 -0.2719 -0.6238 0.9946
-1.1113 -0.4770 -0.6274 0.9946
-3.4516 -1.8591 -2.0338 0.9825
-2.9370 2.2725 -2.0339 0.9832
-3.1266 2.0035 -2.0339 0.9832
-1.0900 0.5691 -0.6734 0.9944
-1.0544 0.2305 -0.5911 0.9951
-1.0804 0.0409 -0.5922 0.9951
-1.0813 -0.0550 -0.5930 0.9951
-1.0738 -0.1507 -0.5939 0.9951
-1.0500 -0.2437 -0.5904 0.9951
-1.0308 -0.3379 -0.5941 0.9951
-1.0041 -0.4310 -0.5985 0.9950
-2.9074 -2.3100 -2.0338 0.9832
-2.5843 2.3940 -2.0339 0.9839
-2.7862 2.1558 -2.0339 0.9839
-0.9349 0.3870 -0.5842 0.9953
-0.9543 0.2992 -0.5774 0.9954
-0.9900 -0.0503 -0.5723 0.9954
-0.9841 -0.1381 -0.5738 0.9954
-0.9312 -0.3997 -0.5850 0.9953
-0.9020 -0.4859 -0.5915 0.9953
-2.9414 -1.9386 -2.0339 0.9839
