ply
format ascii 1.0
element vertex 201
property float32 x
property float32 y
property float32 z
property float32 I
end_header
2.4297 18.6451 3.3154 0.9265
-12.5278 13.0623 3.1913 0.9291
-11.9100 12.4180 2.6359 0.9327
2.2926 17.5937 2.3104 0.9309
-11.5967 12.0914 2.1817 0.9347
2.4046 18.4538 1.9984 0.9279
-11.3246 14.1450 1.9457 0.9297
-11.8122 12.3160 1.8325 0.9337
2.2830 17.5198 1.0956 0.9316
-11.8711 12.3774 1.0635 0.9336
-12.9241 13.4753 0.7362 0.9280
4.0771 18.3195 -0.1057 0.9277
-1.7570 7.5698 -0.5698 0.9693
-1.0997 7.8802 -0.7639 0.9685
-1.7308 7.4571 -0.7350 0.9697
-16.3252 6.1305 -1.6742 0.9323
2.2127 16.9806 -2.0341 0.9333
0.6877 17.1103 -2.0341 0.9333
-0.8429 17.1032 -2.0341 0.9333
-1.0560 7.5673 -0.9076 0.9697
-6.7765 15.7254 -2.0340 0.9333
-9.4653 14.2690 -2.0340 0.9334
-10.7015 13.3668 -2.0340 0.9334
-14.7030 8.7744 -2.0339 0.9334
-16.0289 6.0192 -2.0338 0.9334
-16.5021 4.5638 -2.0338 0.9334
4.3575 13.6787 -2.0341 0.9437
-0.7066 14.3384 -2.0341 0.9437
-2.5423 7.7370 -1.1539 0.9676
-7.9353 11.9625 -2.0340 0.9437
-8.9716 11.2061 -2.0339 0.9437
-9.9362 10.3601 -2.0339 0.9437
-10.8216 9.4314 -2.0339 0.9437
-11.6204 8.4274 -2.0339 0.9437
-12.9339 6.2260 -2.0339 0.9437
-13.4380 5.0462 -2.0338 0.9437
-13.8348 3.8262 -2.0338 0.9437
2.6823 12.0523 -2.0341 0.9512
1.5954 12.2436 -2.0341 0.9512
0.4959 12.3371 -2.0340 0.9512
-0.6077 12.3320 -2.0340 0.9512
-1.0176 7.2924 -1.2130 0.9706
-1.6538 7.1253 -1.2050 0.9708
-7.7164 9.6381 -2.0339 0.9512
-8.5460 8.9105 -2.0339 0.9512
-9.3074 8.1118 -2.0339 0.9512
-9.9945 7.2483 -2.0339 0.9512
-11.1242 5.3549 -2.0339 0.9512
-11.8991 3.2908 -2.0338 0.9512
2.3509 10.5632 -2.0340 0.9569
1.3984 10.7308 -2.0340 0.9569
-0.3825 7.7629 -1.4609 0.9689
-1.0179 7.2946 -1.3844 0.9705
-1.6586 7.1459 -1.3789 0.9706
-5.9818 9.0175 -2.0340 0.9569
-6.7630 8.4473 -2.0339 0.9569
-8.7597 6.3528 -2.0339 0.9569
-9.2919 5.5452 -2.0339 0.9569
-10.1300 3.8040 -2.0339 0.9569
2.9208 9.1687 -2.0340 0.9614
0.3864 9.6148 -2.0340 0.9614
-1.6804 7.2398 -1.5710 0.9701
-3.8080 8.8367 -2.0340 0.9614
-6.0137 7.5114 -2.0339 0.9614
-6.6604 6.9444 -2.0339 0.9614
-7.2537 6.3219 -2.0339 0.9614
-7.7892 5.6489 -2.0339 0.9614
-8.6697 4.1734 -2.0339 0.9614
-9.2737 2.5647 -2.0338 0.9614
1.8801 8.4478 -2.0340 0.9651
0.3475 8.6475 -2.0340 0.9651
-0.4260 8.6439 -2.0340 0.9651
-1.0236 7.3354 -1.7407 0.9700
-2.4345 7.4088 -1.8328 0.9685
-3.4249 7.9478 -2.0340 0.9651
-5.4087 6.7558 -2.0339 0.9651
-8.1015 3.0422 -2.0339 0.9651
-0.3867 7.8462 -2.0340 0.9681
-1.7761 7.6522 -2.0340 0.9681
-2.4522 7.4631 -2.0340 0.9681
-3.1088 7.2143 -2.0340 0.9681
-5.4375 5.6694 -2.0339 0.9681
-5.9220 5.1612 -2.0339 0.9681
-7.5710 2.0938 -2.0339 0.9681
1.5609 7.0133 -2.0340 0.9706
0.9284 7.1246 -2.0340 0.9706
-0.3536 7.1761 -2.0340 0.9706
-2.2429 6.8257 -2.0340 0.9706
-3.9716 5.9872 -2.0339 0.9706
-4.4903 5.6086 -2.0339 0.9706
-5.4162 4.7205 -2.0339 0.9706
-5.8161 4.2179 -2.0339 0.9706
-6.1694 3.6818 -2.0339 0.9706
-6.4735 3.1162 -2.0339 0.9706
-6.9245 1.9150 -2.0339 0.9706
1.4366 6.4550 -2.0340 0.9727
-0.3255 6.6048 -2.0340 0.9727
-1.4951 6.4416 -2.0340 0.9727
-2.0643 6.2823 -2.0340 0.9727
-2.6170 6.0729 -2.0339 0.9727
-3.1488 5.8149 -2.0339 0.9727
-3.6554 5.5105 -2.0339 0.9727
-4.1328 5.1621 -2.0339 0.9727
-4.5772 4.7725 -2.0339 0.9727
-4.9850 4.3447 -2.0339 0.9727
-5.3530 3.8822 -2.0339 0.9727
-5.9581 2.8681 -2.0339 0.9727
-6.3732 1.7626 -2.0339 0.9727
1.8573 5.8303 -2.0340 0.9745
1.3293 5.9728 -2.0340 0.9745
-0.3012 6.1115 -2.0340 0.9745
-2.9136 5.3806 -2.0339 0.9745
-4.6127 4.0202 -2.0339 0.9745
-5.8972 1.6310 -2.0339 0.9745
1.2356 5.5519 -2.0340 0.9761
0.7349 5.6400 -2.0340 0.9761
-0.7861 5.6331 -2.0340 0.9761
-1.2859 5.5404 -2.0340 0.9761
-1.7755 5.4034 -2.0339 0.9761
-4.8839 2.9146 -2.0339 0.9761
-5.3244 1.9994 -2.0339 0.9761
0.2132 5.3033 -2.0340 0.9775
-0.2612 5.3011 -2.0340 0.9775
-0.7336 5.2566 -2.0340 0.9775
-1.6568 5.0423 -2.0339 0.9775
-2.1004 4.8742 -2.0339 0.9775
-2.9339 4.4229 -2.0339 0.9775
-3.3171 4.1432 -2.0339 0.9775
-4.0011 3.4871 -2.0339 0.9775
-4.2964 3.1159 -2.0339 0.9775
-4.5575 2.7198 -2.0339 0.9775
-4.7821 2.3020 -2.0339 0.9775
-4.9686 1.8658 -2.0339 0.9775
1.5084 4.7352 -2.0340 0.9787
1.0796 4.8510 -2.0340 0.9787
0.6422 4.9280 -2.0340 0.9787
0.1995 4.9656 -2.0340 0.9788
-0.2446 4.9636 -2.0340 0.9787
-0.6868 4.9219 -2.0339 0.9788
-1.5513 4.7213 -2.0339 0.9788
-1.9667 4.5639 -2.0339 0.9788
-3.7464 3.2651 -2.0339 0.9788
1.4166 4.4468 -2.0340 0.9798
1.0139 4.5555 -2.0340 0.9798
0.1874 4.6632 -2.0340 0.9798
-0.2297 4.6613 -2.0340 0.9798
-1.0551 4.5461 -2.0339 0.9798
-1.8469 4.2859 -2.0339 0.9798
-2.2222 4.1039 -2.0339 0.9798
-2.9168 3.6431 -2.0339 0.9798
-3.7779 2.7399 -2.0339 0.9798
-1.9891 0.5501 -0.8994 0.9910
1.3338 4.1868 -2.0340 0.9808
0.9546 4.2891 -2.0340 0.9808
-0.2163 4.3887 -2.0339 0.9808
-0.9934 4.2803 -2.0339 0.9808
-1.3717 4.1744 -2.0339 0.9808
-1.7389 4.0353 -2.0339 0.9808
-2.0923 3.8638 -2.0339 0.9808
-2.7461 3.4301 -2.0339 0.9808
-3.5570 2.5796 -2.0339 0.9808
-3.7731 2.2517 -2.0339 0.9808
-4.1135 1.5447 -2.0339 0.9808
-1.5567 0.4305 -0.7476 0.9929
1.2586 3.9509 -2.0340 0.9817
0.1665 4.1431 -2.0339 0.9817
-0.2041 4.1414 -2.0339 0.9817
-0.9375 4.0391 -2.0339 0.9817
-1.2944 3.9392 -2.0339 0.9817
-1.6409 3.8079 -2.0339 0.9817
-1.9744 3.6462 -2.0339 0.9817
-3.1258 2.7243 -2.0339 0.9817
-3.3566 2.4343 -2.0339 0.9817
-3.7360 1.7984 -2.0339 0.9817
-1.3061 0.3612 -0.6647 0.9940
1.1901 3.7357 -2.0340 0.9825
0.5066 3.8878 -2.0339 0.9825
-1.5516 3.6005 -2.0339 0.9825
-1.8668 3.4476 -2.0339 0.9825
-2.1672 3.2671 -2.0339 0.9825
-2.9556 2.5759 -2.0339 0.9825
-3.1737 2.3017 -2.0339 0.9825
-3.5325 1.7005 -2.0339 0.9825
-1.1284 0.4237 -0.6253 0.9946
1.1272 3.5384 -2.0339 0.9832
0.8068 3.6249 -2.0339 0.9832
0.1492 3.7106 -2.0339 0.9832
-0.1828 3.7091 -2.0339 0.9832
-2.0528 3.0946 -2.0339 0.9832
-2.3209 2.8989 -2.0339 0.9832
-2.5704 2.6801 -2.0339 0.9832
-1.0388 0.2873 -0.5903 0.9951
-0.4869 3.4890 -2.0339 0.9839
-0.7965 3.4316 -2.0339 0.9839
-1.3941 3.2352 -2.0339 0.9839
-1.6775 3.0978 -2.0339 0.9839
-2.2017 2.7500 -2.0339 0.9839
-2.6557 2.3146 -2.0339 0.9839
-2.8518 2.0682 -2.0339 0.9839
-0.9174 0.4416 -0.5879 0.9953
-0.9434 0.3543 -0.5818 0.9954
