ply
format ascii 1.0
element vertex 171
property float32 x
property float32 y
property float32 z
property float32 I
end_header
16.3713 -3.5982 -1.2290 0.9350
2.8726 -6.0872 -0.6462 0.9733
16.2558 -3.5728 -1.5979 0.9353
-0.2711 -17.1186 -2.0337 0.9334
2.3487 -6.4429 -0.8146 0.9728
8.6893 -14.7529 -2.0338 0.9334
9.9989 -13.8989 -2.0338 0.9334
11.2253 -12.9289 -2.0339 0.9334
12.3580 -11.8511 -2.0339 0.9334
13.3878 -10.6744 -2.0339 0.9334
14.3059 -9.4087 -2.0339 0.9334
16.3189 -5.1860 -2.0340 0.9334
16.7241 -3.6757 -2.0340 0.9334
10.3605 -9.9355 -2.0339 0.9437
11.2238 -8.9489 -2.0339 0.9437
11.9934 -7.8878 -2.0339 0.9437
13.2271 -5.5775 -2.0340 0.9437
14.0206 -3.0815 -2.0340 0.9437
0.9314 -12.3102 -2.0338 0.9512
2.1992 -6.0328 -1.0578 0.9743
9.6534 -7.6968 -2.0339 0.9512
10.8912 -5.8149 -2.0339 0.9512
11.3764 -4.7971 -2.0339 0.9512
-0.1713 -10.8189 -2.0338 0.9569
0.8163 -10.7895 -2.0338 0.9569
1.7972 -10.6700 -2.0338 0.9569
1.5989 -6.0536 -1.1769 0.9748
2.1489 -5.8948 -1.1793 0.9748
2.7204 -5.7646 -1.1981 0.9744
3.4686 -5.8891 -1.2847 0.9726
6.3191 -8.7838 -2.0339 0.9569
7.8100 -7.4896 -2.0339 0.9569
9.0409 -5.9460 -2.0339 0.9569
9.5457 -5.0965 -2.0339 0.9569
-0.1523 -9.6203 -2.0338 0.9614
0.7259 -9.5941 -2.0338 0.9614
1.5981 -9.4879 -2.0338 0.9614
3.4672 -5.8868 -1.4441 0.9725
5.6191 -7.8106 -2.0339 0.9614
6.3082 -7.2655 -2.0339 0.9614
7.5234 -5.9985 -2.0339 0.9614
8.0393 -5.2872 -2.0339 0.9614
8.8662 -3.7386 -2.0339 0.9614
9.3980 -2.0655 -2.0340 0.9614
1.4373 -8.5335 -2.0338 0.9651
1.5705 -5.9461 -1.4454 0.9750
2.0840 -5.7167 -1.4300 0.9753
2.7383 -5.8025 -1.5079 0.9740
3.4065 -5.7837 -1.5776 0.9728
5.0538 -7.0249 -2.0339 0.9651
5.6736 -6.5346 -2.0339 0.9651
6.2461 -5.9898 -2.0339 0.9651
7.9742 -3.3625 -2.0339 0.9651
8.4525 -1.8578 -2.0340 0.9651
0.5927 -7.8327 -2.0338 0.9681
1.3047 -7.7460 -2.0338 0.9681
2.6552 -5.6265 -1.6109 0.9746
3.9865 -6.7685 -2.0339 0.9681
5.1500 -5.9316 -2.0339 0.9681
5.6697 -5.4371 -2.0339 0.9681
6.5632 -4.3165 -2.0339 0.9681
6.9296 -3.6998 -2.0339 0.9681
1.1933 -7.0845 -2.0338 0.9706
2.1753 -5.9671 -1.7980 0.9739
2.8000 -5.9332 -1.8573 0.9731
4.1957 -5.8321 -2.0339 0.9706
4.7102 -5.4251 -2.0339 0.9706
5.6175 -4.4790 -2.0339 0.9706
6.6202 -2.7916 -2.0339 0.9706
6.8473 -2.1760 -2.0339 0.9706
-0.1047 -6.6116 -2.0338 0.9727
0.4989 -6.5936 -2.0338 0.9727
1.0984 -6.5206 -2.0338 0.9727
2.8220 -5.9801 -2.0339 0.9727
3.3559 -5.6977 -2.0339 0.9727
3.8616 -5.3678 -2.0339 0.9727
5.5248 -3.6336 -2.0339 0.9727
6.0932 -2.5693 -2.0339 0.9727
6.4586 -1.4195 -2.0339 0.9727
-0.0969 -6.1178 -2.0338 0.9745
0.4616 -6.1011 -2.0338 0.9745
2.0956 -5.7485 -2.0339 0.9745
3.1052 -5.2721 -2.0339 0.9745
3.5732 -4.9669 -2.0339 0.9745
4.0114 -4.6203 -2.0339 0.9745
4.4162 -4.2351 -2.0339 0.9745
5.1122 -3.3622 -2.0339 0.9745
5.3977 -2.8819 -2.0339 0.9745
0.4291 -5.6712 -2.0338 0.9761
0.9446 -5.6084 -2.0338 0.9761
1.9479 -5.3434 -2.0339 0.9761
2.4273 -5.1435 -2.0339 0.9761
2.8864 -4.9006 -2.0339 0.9761
3.3214 -4.6169 -2.0339 0.9761
4.4470 -3.5457 -2.0339 0.9761
4.7519 -3.1253 -2.0339 0.9761
5.0173 -2.6788 -2.0339 0.9761
5.4205 -1.7226 -2.0339 0.9761
5.5550 -1.2210 -2.0339 0.9761
0.4004 -5.2922 -2.0338 0.9775
1.3553 -5.1314 -2.0339 0.9775
2.6935 -4.5731 -2.0339 0.9775
3.0994 -4.3083 -2.0339 0.9775
3.4796 -4.0076 -2.0339 0.9775
3.8306 -3.6735 -2.0339 0.9775
4.1498 -3.3088 -2.0339 0.9775
4.4344 -2.9164 -2.0339 0.9775
4.8905 -2.0622 -2.0339 0.9775
5.0582 -1.6075 -2.0339 0.9775
5.1838 -1.1393 -2.0339 0.9775
-0.0787 -4.9688 -2.0338 0.9788
0.8254 -4.9004 -2.0339 0.9788
2.5220 -4.2820 -2.0339 0.9788
3.8856 -3.0981 -2.0339 0.9788
4.3839 -2.3406 -2.0339 0.9788
4.5791 -1.9309 -2.0339 0.9788
4.7362 -1.5051 -2.0339 0.9788
4.8538 -1.0668 -2.0339 0.9788
1.1917 -4.5121 -2.0339 0.9798
1.5984 -4.3845 -2.0339 0.9798
1.9916 -4.2205 -2.0339 0.9798
2.7254 -3.7884 -2.0339 0.9798
3.0596 -3.5240 -2.0339 0.9798
4.5582 -1.0018 -2.0339 0.9798
0.3315 -4.3814 -2.0339 0.9808
0.7298 -4.3328 -2.0339 0.9808
2.5660 -3.5668 -2.0339 0.9808
2.8807 -3.3179 -2.0339 0.9808
3.1714 -3.0412 -2.0339 0.9808
3.6712 -2.4145 -2.0339 0.9808
3.8761 -2.0695 -2.0339 0.9808
4.1877 -1.3308 -2.0339 0.9808
4.2916 -0.9433 -2.0339 0.9808
-0.0657 -4.1458 -2.0339 0.9817
0.3128 -4.1345 -2.0339 0.9817
1.4201 -3.8956 -2.0339 0.9817
1.7695 -3.7498 -2.0339 0.9817
2.1043 -3.5727 -2.0339 0.9817
2.4214 -3.3659 -2.0339 0.9817
2.7184 -3.1309 -2.0339 0.9817
2.9927 -2.8699 -2.0339 0.9817
3.2420 -2.5849 -2.0339 0.9817
3.4643 -2.2784 -2.0339 0.9817
4.0498 -0.8901 -2.0339 0.9817
-0.0621 -3.9200 -2.0339 0.9825
0.2958 -3.9093 -2.0339 0.9825
1.0011 -3.7905 -2.0339 0.9825
1.3427 -3.6834 -2.0339 0.9825
1.9897 -3.3781 -2.0339 0.9825
3.0654 -2.4441 -2.0339 0.9825
3.4585 -1.8465 -2.0339 0.9825
-0.0588 -3.7130 -2.0339 0.9832
0.2802 -3.7029 -2.0339 0.9832
0.9483 -3.5903 -2.0339 0.9832
2.1686 -3.0145 -2.0339 0.9832
2.4346 -2.8041 -2.0339 0.9832
2.6803 -2.5703 -2.0339 0.9832
3.4218 -1.4429 -2.0339 0.9832
1.8846 -0.5989 -1.0830 0.9910
1.8573 -0.4082 -1.0415 0.9914
-0.0558 -3.5223 -2.0339 0.9839
0.2657 -3.5127 -2.0339 0.9839
0.8996 -3.4060 -2.0339 0.9839
1.2065 -3.3097 -2.0339 0.9839
1.7878 -3.0354 -2.0339 0.9839
2.0573 -2.8597 -2.0339 0.9839
2.3096 -2.6601 -2.0339 0.9839
2.5426 -2.4383 -2.0339 0.9839
2.9434 -1.9357 -2.0339 0.9839
3.1077 -1.6592 -2.0339 0.9839
1.7212 -0.5470 -1.0427 0.9917
