ply
format ascii 1.0
element vertex 158
property float32 x
property float32 y
property float32 z
property float32 I
end_header
-10.6268 -13.4231 -2.0337 0.9334
-9.4024 -14.3074 -2.0337 0.9334
-8.1048 -15.0804 -2.0337 0.9334
-6.7443 -15.7361 -2.0337 0.9334
-3.8766 -16.6759 -2.0337 0.9334
2.1274 -16.9882 -2.0337 0.9334
3.6164 -16.7348 -2.0337 0.9334
1.9288 -6.2118 -0.7726 0.9741
3.0953 -5.9809 -0.7999 0.9732
11.5744 -12.6173 -2.0339 0.9334
-7.8827 -11.9949 -2.0337 0.9437
-6.7949 -12.6430 -2.0337 0.9437
-3.2500 -13.9806 -2.0337 0.9437
-2.0052 -14.2127 -2.0337 0.9437
0.5214 -14.3441 -2.0337 0.9437
3.0319 -14.0299 -2.0338 0.9437
9.7035 -10.5779 -2.0339 0.9437
-6.7798 -10.3168 -2.0337 0.9512
-2.7953 -12.0246 -2.0337 0.9512
-1.7247 -12.2242 -2.0337 0.9512
1.5341 -12.2498 -2.0338 0.9512
2.6077 -12.0670 -2.0338 0.9512
2.3879 -5.8205 -1.0364 0.9748
3.0370 -5.8685 -1.0886 0.9736
7.5115 -9.7980 -2.0339 0.9512
-5.1223 -9.5309 -2.0338 0.9569
-2.4500 -10.5391 -2.0338 0.9569
-1.5116 -10.7141 -2.0338 0.9569
0.3931 -10.8131 -2.0338 0.9569
1.8602 -5.9906 -1.1790 0.9748
2.3872 -5.8187 -1.1822 0.9747
3.0213 -5.8380 -1.2356 0.9736
5.8010 -9.1342 -2.0338 0.9569
6.5835 -8.5875 -2.0339 0.9569
7.3148 -7.9739 -2.0339 0.9569
-5.9721 -7.5436 -2.0338 0.9614
-4.5548 -8.4749 -2.0338 0.9614
-2.9961 -9.1431 -2.0338 0.9614
-2.1786 -9.3715 -2.0338 0.9614
-1.3441 -9.5271 -2.0338 0.9614
-0.4993 -9.6086 -2.0338 0.9614
0.3495 -9.6152 -2.0338 0.9614
2.9138 -5.6303 -1.3401 0.9744
5.1583 -8.1223 -2.0339 0.9614
5.8541 -7.6361 -2.0339 0.9614
6.5044 -7.0904 -2.0339 0.9614
-5.3713 -6.7847 -2.0338 0.9651
-4.7525 -7.2317 -2.0338 0.9651
-2.6947 -8.2233 -2.0338 0.9651
-1.9594 -8.4289 -2.0338 0.9651
-1.2089 -8.5687 -2.0338 0.9651
-0.4491 -8.6420 -2.0338 0.9651
0.3143 -8.6479 -2.0338 0.9651
1.0753 -8.5866 -2.0338 0.9651
2.9456 -5.6917 -1.5062 0.9740
4.6394 -7.3052 -2.0339 0.9651
5.8500 -6.3772 -2.0339 0.9651
-4.8757 -6.1586 -2.0338 0.9681
-4.3139 -6.5643 -2.0338 0.9681
-3.0943 -7.2198 -2.0338 0.9681
0.2853 -7.8499 -2.0338 0.9681
3.0170 -5.8297 -1.6996 0.9732
4.7793 -6.2341 -2.0339 0.9681
-4.4593 -5.6327 -2.0338 0.9706
-3.9455 -6.0038 -2.0338 0.9706
-1.6267 -6.9977 -2.0338 0.9706
-1.0037 -7.1138 -2.0338 0.9706
1.4086 -6.5183 -1.8879 0.9727
3.0689 -5.9299 -1.8902 0.9726
4.3711 -5.7017 -2.0339 0.9706
-1.4972 -6.4406 -2.0338 0.9727
-0.9238 -6.5475 -2.0338 0.9727
0.2402 -6.6081 -2.0338 0.9727
0.8216 -6.5612 -2.0338 0.9727
1.8692 -6.0197 -1.9387 0.9740
3.5450 -5.5820 -2.0339 0.9727
4.0232 -5.2479 -2.0339 0.9727
-3.3603 -5.1132 -2.0338 0.9745
-1.9052 -5.8143 -2.0338 0.9745
-0.8548 -6.0585 -2.0338 0.9745
-0.3175 -6.1103 -2.0338 0.9745
4.1362 -4.5089 -2.0339 0.9745
-1.7710 -5.4046 -2.0338 0.9761
-1.2878 -5.5396 -2.0338 0.9761
-0.7945 -5.6316 -2.0338 0.9761
0.2066 -5.6836 -2.0338 0.9761
2.6141 -5.0511 -2.0339 0.9761
3.0491 -4.8011 -2.0339 0.9761
3.4604 -4.5137 -2.0339 0.9761
3.8447 -4.1912 -2.0339 0.9761
-3.2943 -4.1611 -2.0338 0.9775
-2.5125 -4.6748 -2.0338 0.9775
-1.6526 -5.0434 -2.0338 0.9775
-0.7414 -5.2552 -2.0338 0.9775
0.1928 -5.3038 -2.0338 0.9775
0.6595 -5.2662 -2.0338 0.9775
-2.7291 -4.1529 -2.0338 0.9788
-1.9576 -4.5675 -2.0338 0.9788
-1.5474 -4.7223 -2.0338 0.9788
-0.2579 -4.9627 -2.0338 0.9788
0.1805 -4.9661 -2.0338 0.9788
0.6175 -4.9309 -2.0339 0.9788
1.4737 -4.7459 -2.0339 0.9788
1.8862 -4.5976 -2.0339 0.9788
3.3594 -3.6621 -2.0339 0.9788
-2.2092 -4.1107 -2.0338 0.9798
-1.8384 -4.2894 -2.0338 0.9798
-1.4532 -4.4347 -2.0338 0.9798
0.5799 -4.6306 -2.0339 0.9798
0.9857 -4.5615 -2.0339 0.9798
1.3839 -4.4569 -2.0339 0.9798
1.7713 -4.3176 -2.0339 0.9798
2.1449 -4.1447 -2.0339 0.9798
2.5019 -3.9395 -2.0339 0.9798
2.8394 -3.7037 -2.0339 0.9798
-2.4130 -3.6719 -2.0338 0.9808
-1.7309 -4.0386 -2.0338 0.9808
-0.9949 -4.2798 -2.0338 0.9808
-0.2280 -4.3879 -2.0338 0.9808
0.1596 -4.3910 -2.0339 0.9808
1.6678 -4.0651 -2.0339 0.9808
2.0195 -3.9023 -2.0339 0.9808
2.3556 -3.7091 -2.0339 0.9808
2.6733 -3.4871 -2.0339 0.9808
2.9703 -3.2379 -2.0339 0.9808
-1.2911 -3.9402 -2.0338 0.9817
-0.9388 -4.0386 -2.0338 0.9817
0.1506 -4.1436 -2.0339 0.9817
0.5152 -4.1142 -2.0339 0.9817
0.8758 -4.0528 -2.0339 0.9817
1.5738 -3.8360 -2.0339 0.9817
2.2229 -3.5002 -2.0339 0.9817
2.5227 -3.2906 -2.0339 0.9817
2.8029 -3.0555 -2.0339 0.9817
-2.4334 -3.0738 -2.0338 0.9825
-2.1531 -3.2763 -2.0338 0.9825
0.1424 -3.9179 -2.0339 0.9825
1.4881 -3.6271 -2.0339 0.9825
2.3853 -3.1114 -2.0339 0.9825
2.6503 -2.8890 -2.0339 0.9825
-2.3049 -2.9115 -2.0338 0.9832
-1.7580 -3.2710 -2.0338 0.9832
-1.4628 -3.4132 -2.0338 0.9832
-1.1563 -3.5288 -2.0339 0.9832
-0.5188 -3.6770 -2.0339 0.9832
1.4095 -3.4356 -2.0339 0.9832
1.7067 -3.2980 -2.0339 0.9832
1.9908 -3.1347 -2.0339 0.9832
2.2593 -2.9471 -2.0339 0.9832
-2.1866 -2.7620 -2.0339 0.9839
-1.0970 -3.3476 -2.0339 0.9839
-0.7977 -3.4312 -2.0339 0.9839
-0.4921 -3.4882 -2.0339 0.9839
0.4377 -3.4954 -2.0339 0.9839
1.0447 -3.3643 -2.0339 0.9839
1.3371 -3.2592 -2.0339 0.9839
1.8886 -2.9738 -2.0339 0.9839
2.1433 -2.7958 -2.0339 0.9839
