ply
format ascii 1.0
element vertex 190
property float32 x
property float32 y
property float32 z
property float32 I
end_header
-12.9416 11.9004 1.8879 0.9317
-17.1957 5.1467 -0.9103 0.9306
-11.8808 -8.3851 -0.7375 0.9434
-11.6242 -8.2040 -1.0432 0.9445
-16.5492 4.9531 -1.6584 0.9329
-11.7374 -8.2839 -1.3792 0.9439
-13.6000 10.4027 -2.0339 0.9334
-15.8918 6.3724 -2.0338 0.9334
-16.7793 3.4061 -2.0338 0.9334
-17.1180 0.3286 -2.0338 0.9334
-17.0775 -1.2205 -2.0337 0.9334
-16.8970 -2.7596 -2.0337 0.9334
-16.5782 -4.2760 -2.0337 0.9334
-14.8230 -8.5669 -2.0337 0.9334
-11.9810 -12.2296 -2.0337 0.9334
-10.5664 9.7164 -2.0339 0.9437
-12.1434 7.6545 -2.0339 0.9437
-12.7856 6.5251 -2.0339 0.9437
-13.3231 5.3423 -2.0338 0.9437
-13.7514 4.1158 -2.0338 0.9437
-14.0671 2.8555 -2.0338 0.9437
-14.2676 1.5719 -2.0338 0.9437
-14.3511 0.2755 -2.0338 0.9437
-14.3171 -1.0232 -2.0338 0.9437
-13.8986 -3.5849 -2.0337 0.9437
-13.5175 -4.8268 -2.0337 0.9437
-13.0257 -6.0293 -2.0337 0.9437
-11.7268 -8.2764 -2.0337 0.9437
-10.9304 -9.3028 -2.0337 0.9437
-9.0880 8.3570 -2.0339 0.9512
-10.4443 6.5835 -2.0339 0.9512
-10.9967 5.6121 -2.0339 0.9512
-11.4590 4.5948 -2.0339 0.9512
-12.2714 1.3520 -2.0338 0.9512
-12.1840 -1.9898 -2.0338 0.9512
-10.6885 -6.1774 -2.0337 0.9512
-9.4012 -8.0013 -2.0337 0.9512
-8.5948 6.5742 -2.0339 0.9569
-9.6381 4.9188 -2.0339 0.9569
-10.3662 3.1026 -2.0338 0.9569
-10.6042 2.1526 -2.0338 0.9569
-10.8184 0.2076 -2.0338 0.9569
-10.6788 -1.7441 -2.0338 0.9569
-9.8193 -4.5451 -2.0338 0.9569
-9.3681 -5.4143 -2.0338 0.9569
-7.5720 -7.7291 -2.0337 0.9569
-8.5703 4.3738 -2.0339 0.9614
-8.9306 3.5810 -2.0339 0.9614
-9.2178 2.7589 -2.0339 0.9614
-9.5638 1.0537 -2.0338 0.9614
-9.6198 0.1846 -2.0338 0.9614
-9.5971 -0.6859 -2.0338 0.9614
-9.4957 -1.5508 -2.0338 0.9614
-9.3166 -2.4030 -2.0338 0.9614
-8.7314 -4.0416 -2.0338 0.9614
-7.8608 -5.5479 -2.0338 0.9614
-7.3270 -6.2359 -2.0338 0.9614
-6.7331 -6.8729 -2.0338 0.9614
-6.3702 5.8578 -2.0339 0.9651
-7.3209 4.6147 -2.0339 0.9651
-7.7082 3.9338 -2.0339 0.9651
-8.0322 3.2208 -2.0339 0.9651
-8.6017 0.9477 -2.0338 0.9651
-8.6317 -0.6169 -2.0338 0.9651
-8.3794 -2.1613 -2.0338 0.9651
-7.8531 -3.6350 -2.0338 0.9651
-7.4923 -4.3302 -2.0338 0.9651
-7.0701 -4.9898 -2.0338 0.9651
-6.5899 -5.6087 -2.0338 0.9651
-6.0559 -6.1815 -2.0338 0.9651
-6.2394 4.7725 -2.0339 0.9681
-6.6453 4.1888 -2.0339 0.9681
-6.9968 3.5708 -2.0339 0.9681
-7.6982 1.5627 -2.0339 0.9681
-7.8351 -0.5600 -2.0338 0.9681
-7.7523 -1.2661 -2.0338 0.9681
-7.6061 -1.9619 -2.0338 0.9681
-6.4176 -4.5294 -2.0338 0.9681
-5.9818 -5.0910 -2.0338 0.9681
-5.7066 4.3650 -2.0339 0.9706
-6.6683 2.6738 -2.0339 0.9706
-7.1412 0.7868 -2.0338 0.9706
-7.1660 -0.5122 -2.0338 0.9706
-6.5197 -3.0178 -2.0338 0.9706
-5.8696 -4.1426 -2.0338 0.9706
-5.4710 -4.6563 -2.0338 0.9706
-4.8675 4.4760 -2.0339 0.9727
-5.5940 3.5261 -2.0339 0.9727
-6.4804 1.3154 -2.0339 0.9727
-6.5259 -1.0658 -2.0338 0.9727
-6.4028 -1.6515 -2.0338 0.9727
-5.7250 -3.3088 -2.0338 0.9727
-5.4023 -3.8128 -2.0338 0.9727
-5.0355 -4.2857 -2.0338 0.9727
-4.5040 4.1416 -2.0339 0.9745
-5.1762 3.2628 -2.0339 0.9745
-5.4500 2.7814 -2.0339 0.9745
-5.9963 1.2172 -2.0339 0.9745
-6.0818 0.6700 -2.0339 0.9745
-6.1029 -0.4362 -2.0338 0.9745
-5.7621 -2.0576 -2.0338 0.9745
-5.5525 -2.5701 -2.0338 0.9745
-4.9989 -3.5281 -2.0338 0.9745
-4.1866 3.8498 -2.0339 0.9761
-4.5175 3.4554 -2.0339 0.9761
-4.8114 3.0328 -2.0339 0.9761
-5.0659 2.5854 -2.0339 0.9761
-5.2789 2.1167 -2.0339 0.9761
-5.5738 1.1314 -2.0339 0.9761
-5.6532 0.6228 -2.0339 0.9761
-5.6863 0.1091 -2.0339 0.9761
-5.6729 -0.4054 -2.0338 0.9761
-5.6130 -0.9167 -2.0338 0.9761
-5.3561 -1.9126 -2.0338 0.9761
-4.9241 -2.8459 -2.0338 0.9761
-4.6466 -3.2795 -2.0338 0.9761
-4.3310 -3.6861 -2.0338 0.9761
-3.9800 -4.0626 -2.0338 0.9761
-4.4898 2.8301 -2.0339 0.9775
-4.7273 2.4126 -2.0339 0.9775
-5.2013 1.0558 -2.0339 0.9775
-5.3063 0.1019 -2.0339 0.9775
-5.2937 -0.3784 -2.0339 0.9775
-5.2379 -0.8554 -2.0338 0.9775
-5.1390 -1.3255 -2.0338 0.9775
-4.3361 -3.0603 -2.0338 0.9775
-3.7141 -3.7911 -2.0338 0.9775
-4.2040 2.6500 -2.0339 0.9788
-4.6125 1.8495 -2.0339 0.9788
-2.1218 0.4307 -0.8861 0.9907
-2.1117 0.2326 -0.8695 0.9909
-2.1225 0.0407 -0.8688 0.9909
-2.1200 -0.1515 -0.8699 0.9909
-2.1164 -0.3457 -0.8777 0.9908
-4.8119 -1.2411 -2.0338 0.9788
-4.5096 -2.0874 -2.0338 0.9788
-4.0600 -2.8655 -2.0338 0.9788
-3.7843 -3.2208 -2.0338 0.9788
-3.4776 -3.5497 -2.0338 0.9788
-3.4352 3.1589 -2.0339 0.9798
-3.7068 2.8353 -2.0339 0.9798
-3.9480 2.4886 -2.0339 0.9798
-4.1568 2.1214 -2.0339 0.9798
-2.0557 0.6153 -0.9352 0.9907
-1.9188 0.0368 -0.8364 0.9917
-4.3949 -1.5694 -2.0338 0.9798
-4.0405 -2.3352 -2.0338 0.9798
-3.8128 -2.6910 -2.0338 0.9798
-3.4900 2.6695 -2.0339 0.9808
-3.7171 2.3430 -2.0339 0.9808
-4.0783 1.6353 -2.0339 0.9808
-1.5995 0.3247 -0.7555 0.9928
-1.5700 -0.4050 -0.7505 0.9929
-3.9874 -1.8457 -2.0338 0.9808
-3.8042 -2.1986 -2.0338 0.9808
-3.5898 -2.5336 -2.0338 0.9808
-3.0748 -3.1387 -2.0338 0.9808
-3.2934 2.5191 -2.0339 0.9817
-3.5077 2.2110 -2.0339 0.9817
-3.6932 1.8848 -2.0339 0.9817
-1.7290 0.6933 -0.9138 0.9917
-1.3332 0.2706 -0.6673 0.9940
-1.3532 0.1490 -0.6678 0.9940
-1.3417 0.0257 -0.6583 0.9940
-3.5898 -2.0747 -2.0338 0.9817
-3.3875 -2.3908 -2.0338 0.9817
-2.9016 -2.9618 -2.0338 0.9817
-1.1208 0.4494 -0.6265 0.9946
-1.1998 0.1321 -0.6262 0.9946
-1.2002 -0.0858 -0.6242 0.9946
-1.1910 -0.1946 -0.6261 0.9946
-3.5578 -1.6468 -2.0339 0.9825
-3.2030 -2.2606 -2.0338 0.9825
-2.9855 -2.5410 -2.0338 0.9825
-2.9496 2.2561 -2.0339 0.9832
-3.1414 1.9802 -2.0339 0.9832
-1.0129 0.4061 -0.5977 0.9950
-1.0784 0.0207 -0.5908 0.9951
-1.0811 -0.0773 -0.5936 0.9951
-1.0692 -0.1747 -0.5934 0.9951
-3.2151 -1.8582 -2.0339 0.9832
-2.5932 2.3845 -2.0339 0.9839
-0.9379 0.3761 -0.5834 0.9953
-0.9744 0.1978 -0.5740 0.9954
-0.9872 0.1087 -0.5734 0.9954
-0.9895 -0.0708 -0.5728 0.9954
-0.9471 -0.3382 -0.5806 0.9954
-1.1900 -0.6878 -0.7935 0.9937
-2.8781 -2.0313 -2.0339 0.9839
-2.6826 -2.2832 -2.0339 0.9839
