ply
format ascii 1.0
element vertex 165
property float32 x
property float32 y
property float32 z
property float32 I
end_header
-11.7808 -8.4655 -0.7357 0.9436
-11.5833 -8.3235 -1.0458 0.9444
-11.4418 -8.2220 -1.3527 0.9450
-17.1211 0.0317 -2.0338 0.9334
-17.0556 -1.4949 -2.0337 0.9334
-16.8543 -3.0096 -2.0337 0.9334
-14.7386 -8.7112 -2.0337 0.9334
-12.9570 -11.1904 -2.0337 0.9334
-11.9077 -12.3011 -2.0337 0.9334
-6.8564 -15.6875 -2.0337 0.9334
-5.4305 -16.2364 -2.0337 0.9334
-3.9612 -16.6560 -2.0337 0.9334
-14.1210 2.5755 -2.0338 0.9437
-14.2943 1.3062 -2.0338 0.9437
-14.3537 0.0266 -2.0338 0.9437
-14.1301 -2.5232 -2.0338 0.9437
-13.8488 -3.7729 -2.0337 0.9437
-13.4571 -4.9926 -2.0337 0.9437
-11.6560 -8.3758 -2.0337 0.9437
-10.8628 -9.3817 -2.0337 0.9437
-9.9830 -10.3129 -2.0337 0.9437
-5.7482 -13.1520 -2.0337 0.9437
-4.5527 -13.6121 -2.0337 0.9437
-12.1453 2.2152 -2.0338 0.9512
-12.1532 -2.1701 -2.0338 0.9512
-11.1455 -5.3089 -2.0337 0.9512
-10.6277 -6.2815 -2.0337 0.9512
-10.0253 -7.2040 -2.0337 0.9512
-9.3430 -8.0691 -2.0337 0.9512
-8.5864 -8.8700 -2.0337 0.9512
-6.8745 -10.2539 -2.0337 0.9512
-4.9440 -11.3120 -2.0337 0.9512
-2.8563 -12.0103 -2.0337 0.9512
-10.7790 -0.9448 -2.0338 0.9569
-10.1446 -3.7636 -2.0338 0.9569
-9.7686 -4.6531 -2.0338 0.9569
-9.3147 -5.5055 -2.0338 0.9569
-8.7868 -6.3140 -2.0338 0.9569
-7.5256 -7.7742 -2.0337 0.9569
-6.8026 -8.4143 -2.0337 0.9569
-6.0252 -8.9872 -2.0337 0.9569
-3.4320 -10.2614 -2.0338 0.9569
-9.6216 0.0178 -2.0338 0.9614
-9.5848 -0.8401 -2.0338 0.9614
-9.2832 -2.5291 -2.0338 0.9614
-8.6863 -4.1376 -2.0338 0.9614
-8.2829 -4.8956 -2.0338 0.9614
-7.2816 -6.2888 -2.0338 0.9614
-5.3577 -7.9916 -2.0338 0.9614
-8.5134 1.5527 -2.0338 0.9651
-8.6206 -0.7556 -2.0338 0.9651
-7.4496 -4.4031 -2.0338 0.9651
-7.0274 -5.0498 -2.0338 0.9651
-6.5492 -5.6562 -2.0338 0.9651
-6.0187 -6.2176 -2.0338 0.9651
-4.1588 -7.5887 -2.0338 0.9651
-3.4655 -7.9293 -2.0338 0.9651
-2.7448 -8.2067 -2.0338 0.9651
-2.0022 -8.4188 -2.0338 0.9651
-7.8226 0.7148 -2.0338 0.9681
-7.8551 0.0145 -2.0338 0.9681
-7.0916 -3.3779 -2.0338 0.9681
-6.3789 -4.5838 -2.0338 0.9681
-5.4633 -5.6438 -2.0338 0.9681
-4.3741 -6.5244 -2.0338 0.9681
-3.1458 -7.1976 -2.0338 0.9681
-7.1546 0.6538 -2.0338 0.9706
-7.0724 -1.2629 -2.0338 0.9706
-6.4861 -3.0895 -2.0338 0.9706
-5.4371 -4.6958 -2.0338 0.9706
-4.0006 -5.9673 -2.0338 0.9706
-2.8771 -6.5829 -2.0338 0.9706
-1.6623 -6.9893 -2.0338 0.9706
-6.5052 1.1865 -2.0339 0.9727
-6.5871 -0.5774 -2.0338 0.9727
-6.1995 -2.3000 -2.0338 0.9727
-4.5990 -4.7510 -2.0338 0.9727
-3.6821 -5.4923 -2.0338 0.9727
-2.6481 -6.0589 -2.0338 0.9727
-6.1186 0.0113 -2.0338 0.9745
-6.0952 -0.5342 -2.0338 0.9745
-6.0232 -1.0756 -2.0338 0.9745
-5.9034 -1.6083 -2.0338 0.9745
-5.5238 -2.6312 -2.0338 0.9745
-4.6306 -3.9992 -2.0338 0.9745
-3.4071 -5.0821 -2.0338 0.9745
-2.4504 -5.6064 -2.0338 0.9745
-1.4156 -5.9525 -2.0338 0.9745
-5.5988 -0.9998 -2.0338 0.9761
-5.4873 -1.4949 -2.0338 0.9761
-4.6186 -3.3188 -2.0338 0.9761
-4.3043 -3.7174 -2.0338 0.9761
-3.9557 -4.0863 -2.0338 0.9761
-5.2246 -0.9329 -2.0338 0.9775
-4.7914 -2.2823 -2.0338 0.9775
-4.5689 -2.7004 -2.0338 0.9775
-4.0166 -3.4690 -2.0338 0.9775
-3.6913 -3.8133 -2.0338 0.9775
-2.9554 -4.4082 -2.0338 0.9775
-2.1255 -4.8631 -2.0338 0.9775
-2.1199 0.3866 -0.8819 0.9907
-2.1172 -0.1856 -0.8698 0.9909
-4.6591 -1.7285 -2.0338 0.9788
-4.2780 -2.5285 -2.0338 0.9788
-3.7609 -3.2481 -2.0338 0.9788
-3.4563 -3.5705 -2.0338 0.9788
-3.1242 -3.8644 -2.0338 0.9788
-2.3882 -4.3579 -2.0338 0.9788
-1.9902 -4.5535 -2.0338 0.9788
-1.5762 -4.7128 -2.0338 0.9788
-1.9132 -0.1677 -0.8370 0.9917
-1.9052 -0.3402 -0.8435 0.9916
-3.5319 -3.0503 -2.0338 0.9798
-2.2428 -4.0925 -2.0338 0.9798
-1.8689 -4.2762 -2.0338 0.9798
-1.4802 -4.4257 -2.0338 0.9798
-1.6052 0.1467 -0.7461 0.9929
-1.5666 0.0029 -0.7252 0.9931
-1.6044 -0.1406 -0.7455 0.9929
-3.9668 -1.8895 -2.0338 0.9808
-3.0560 -3.1570 -2.0338 0.9808
-2.7624 -3.4169 -2.0338 0.9808
-2.1116 -3.8532 -2.0338 0.9808
-1.0166 -4.2746 -2.0338 0.9808
-1.3351 0.0024 -0.6549 0.9941
-1.3533 -0.1187 -0.6664 0.9940
-1.3407 -0.2394 -0.6681 0.9940
-1.2607 -0.4677 -0.6596 0.9940
-3.7433 -1.7830 -2.0338 0.9817
-3.1379 -2.7101 -2.0338 0.9817
-2.6067 -3.2244 -2.0338 0.9817
-2.3089 -3.4439 -2.0338 0.9817
-1.9927 -3.6361 -2.0338 0.9817
-1.3152 -3.9322 -2.0338 0.9817
-1.1921 0.0022 -0.6184 0.9946
-1.2004 -0.1053 -0.6252 0.9946
-1.1296 -0.4191 -0.6251 0.9946
-3.5394 -1.6859 -2.0339 0.9825
-3.1837 -2.2878 -2.0338 0.9825
-2.7268 -2.8169 -2.0338 0.9825
-2.4648 -3.0487 -2.0338 0.9825
-2.1831 -3.2564 -2.0338 0.9825
-1.2436 -3.7180 -2.0338 0.9825
-0.9071 -3.8141 -2.0338 0.9825
-1.0799 0.0987 -0.5940 0.9951
-1.0759 0.0020 -0.5893 0.9951
-1.0802 -0.0947 -0.5939 0.9951
-1.0657 -0.1903 -0.5929 0.9951
-1.0211 -0.3788 -0.5965 0.9950
-3.0155 -2.1669 -2.0339 0.9832
-2.8104 -2.4272 -2.0338 0.9832
-2.3346 -2.8878 -2.0338 0.9832
-0.8592 -3.6127 -2.0339 0.9832
-0.9780 0.1784 -0.5740 0.9954
-0.9886 0.0903 -0.5731 0.9954
-0.9888 -0.0867 -0.5731 0.9954
-0.9787 -0.1748 -0.5740 0.9954
-0.9594 -0.2614 -0.5741 0.9954
-0.9187 -0.4376 -0.5875 0.9953
-2.8607 -2.0557 -2.0339 0.9839
-2.6661 -2.3025 -2.0339 0.9839
-2.4501 -2.5311 -2.0339 0.9839
-1.6930 -3.0893 -2.0339 0.9839
-1.1174 -3.3409 -2.0339 0.9839
-0.8151 -3.4272 -2.0339 0.9839
