ply
format ascii 1.0
element vertex 180
property float32 x
property float32 y
property float32 z
property float32 I
end_header
-10.7467 -13.3272 -2.0337 0.9334
-9.5316 -14.2217 -2.0337 0.9334
-5.4824 -16.2190 -2.0337 0.9334
-1.0518 -17.0884 -2.0337 0.9334
0.4569 -17.1148 -2.0337 0.9334
1.9621 -17.0081 -2.0337 0.9334
1.8627 -6.2152 -0.7707 0.9742
2.9777 -5.8983 -0.7849 0.9737
9.0320 -14.5457 -2.0338 0.9334
10.2778 -13.6941 -2.0338 0.9334
-5.7756 -13.1400 -2.0337 0.9437
-0.8818 -14.3264 -2.0337 0.9437
0.3831 -14.3484 -2.0337 0.9437
1.6450 -14.2591 -2.0338 0.9437
3.0263 -5.9947 -0.9515 0.9732
9.5939 -10.6773 -2.0339 0.9437
-7.7493 -9.6100 -2.0337 0.9512
-6.8730 -10.2550 -2.0337 0.9512
-4.9676 -11.3016 -2.0337 0.9512
-3.9532 -11.6951 -2.0337 0.9512
-2.9081 -11.9978 -2.0337 0.9512
-1.8404 -12.2073 -2.0337 0.9512
-0.7584 -12.3220 -2.0338 0.9512
0.3295 -12.3410 -2.0338 0.9512
1.4148 -12.2641 -2.0338 0.9512
6.5127 -10.4883 -2.0338 0.9512
7.4109 -9.8743 -2.0339 0.9512
-6.0239 -8.9881 -2.0337 0.9569
-5.2091 -9.4836 -2.0337 0.9569
-4.3539 -9.9055 -2.0338 0.9569
-2.5488 -10.5157 -2.0338 0.9569
-0.6647 -10.7998 -2.0338 0.9569
0.2888 -10.8164 -2.0338 0.9569
5.7080 -9.1926 -2.0338 0.9569
7.2322 -8.0489 -2.0339 0.9569
-6.0395 -7.4897 -2.0338 0.9614
-5.3566 -7.9924 -2.0338 0.9614
-3.8716 -8.8081 -2.0338 0.9614
-2.2665 -9.3507 -2.0338 0.9614
-0.5911 -9.6033 -2.0338 0.9614
1.7925 -5.9810 -1.3198 0.9748
2.3346 -5.8561 -1.3326 0.9746
2.8373 -5.6203 -1.3308 0.9746
5.0756 -8.1742 -2.0339 0.9614
6.4309 -7.1571 -2.0339 0.9614
-4.8177 -7.1884 -2.0338 0.9651
-4.1661 -7.5847 -2.0338 0.9651
-2.0385 -8.4101 -2.0338 0.9651
0.2310 -8.6506 -2.0338 0.9651
1.2833 -6.2343 -1.4959 0.9742
5.1947 -6.9214 -2.0339 0.9651
5.7840 -6.4372 -2.0339 0.9651
-4.9306 -6.1146 -2.0338 0.9681
-3.7816 -6.8847 -2.0338 0.9681
-2.5154 -7.4414 -2.0338 0.9681
-1.1710 -7.7673 -2.0338 0.9681
-0.4826 -7.8402 -2.0338 0.9681
0.2096 -7.8522 -2.0338 0.9681
0.9002 -7.8033 -2.0338 0.9681
4.7153 -6.2827 -2.0339 0.9681
-4.5096 -5.5925 -2.0338 0.9706
-3.9997 -5.9679 -2.0338 0.9706
-2.8909 -6.5769 -2.0338 0.9706
-2.3005 -6.8059 -2.0338 0.9706
-1.0710 -7.1040 -2.0338 0.9706
-0.4413 -7.1707 -2.0338 0.9706
0.1918 -7.1818 -2.0338 0.9706
0.8234 -7.1370 -2.0338 0.9706
1.7774 -5.9306 -1.7527 0.9746
2.6605 -6.6736 -2.0338 0.9706
3.2378 -6.4135 -2.0339 0.9706
3.7899 -6.1035 -2.0339 0.9706
4.8018 -5.3441 -2.0339 0.9706
-3.6814 -5.4928 -2.0338 0.9727
-3.1834 -5.7956 -2.0338 0.9727
-2.6607 -6.0534 -2.0338 0.9727
-0.9857 -6.5385 -2.0338 0.9727
-0.4062 -6.5999 -2.0338 0.9727
0.7578 -6.5688 -2.0338 0.9727
1.3332 -6.4766 -2.0338 0.9727
1.8020 -6.0123 -1.9305 0.9741
3.4882 -5.6176 -2.0339 0.9727
-3.8407 -4.7629 -2.0338 0.9745
-2.9456 -5.3627 -2.0338 0.9745
-2.4620 -5.6013 -2.0338 0.9745
-1.9593 -5.7963 -2.0338 0.9745
-1.4413 -5.9463 -2.0338 0.9745
-0.9121 -6.0502 -2.0338 0.9745
-0.3759 -6.1070 -2.0338 0.9745
0.1633 -6.1164 -2.0338 0.9745
0.7012 -6.0783 -2.0338 0.9745
1.2337 -5.9929 -2.0338 0.9745
2.7575 -5.4620 -2.0339 0.9745
3.2277 -5.1981 -2.0339 0.9745
3.6729 -4.8937 -2.0339 0.9745
-3.1664 -4.7244 -2.0338 0.9761
-2.7381 -4.9849 -2.0338 0.9761
-2.2885 -5.2066 -2.0338 0.9761
-1.8212 -5.3879 -2.0338 0.9761
-1.3397 -5.5273 -2.0338 0.9761
0.1518 -5.6854 -2.0338 0.9761
0.6518 -5.6499 -2.0338 0.9761
1.1467 -5.5706 -2.0338 0.9761
1.6328 -5.4480 -2.0339 0.9761
2.1061 -5.2831 -2.0339 0.9761
3.0002 -4.8318 -2.0339 0.9761
3.8013 -4.2305 -2.0339 0.9761
-3.3314 -4.1314 -2.0338 0.9775
-2.5551 -4.6517 -2.0338 0.9775
-2.1356 -4.8586 -2.0338 0.9775
-1.2502 -5.1579 -2.0338 0.9775
-0.3261 -5.2972 -2.0338 0.9775
2.3918 -4.7378 -2.0339 0.9775
2.7997 -4.5088 -2.0339 0.9775
3.5472 -3.9479 -2.0339 0.9775
-2.3924 -4.3555 -2.0338 0.9788
-1.9996 -4.5493 -2.0338 0.9788
-1.1706 -4.8295 -2.0338 0.9788
-0.3053 -4.9600 -2.0338 0.9788
0.1327 -4.9676 -2.0338 0.9788
0.5695 -4.9367 -2.0338 0.9788
1.0020 -4.8674 -2.0339 0.9788
1.8402 -4.6162 -2.0339 0.9788
2.2396 -4.4362 -2.0339 0.9788
2.6215 -4.2218 -2.0339 0.9788
3.3214 -3.6965 -2.0339 0.9788
-2.9294 -3.6328 -2.0338 0.9798
-2.5981 -3.8766 -2.0338 0.9798
-1.4944 -4.4210 -2.0338 0.9798
-1.0993 -4.5354 -2.0338 0.9798
-0.2867 -4.6579 -2.0338 0.9798
0.5348 -4.6360 -2.0339 0.9798
2.1032 -4.1660 -2.0339 0.9798
2.4618 -3.9647 -2.0339 0.9798
2.8013 -3.7325 -2.0339 0.9798
3.1191 -3.4714 -2.0339 0.9798
-2.1153 -3.8511 -2.0338 0.9808
-1.4070 -4.1625 -2.0338 0.9808
-1.0350 -4.2702 -2.0338 0.9808
-0.6550 -4.3448 -2.0338 0.9808
-0.2699 -4.3856 -2.0338 0.9808
0.1173 -4.3923 -2.0339 0.9808
0.5036 -4.3649 -2.0339 0.9808
0.8859 -4.3037 -2.0339 0.9808
1.2614 -4.2089 -2.0339 0.9808
1.6271 -4.0815 -2.0339 0.9808
1.9802 -3.9224 -2.0339 0.9808
-2.6027 -3.2276 -2.0338 0.9817
-2.3084 -3.4443 -2.0338 0.9817
-0.6181 -4.1000 -2.0338 0.9817
0.8360 -4.0612 -2.0339 0.9817
1.1903 -3.9718 -2.0339 0.9817
1.5354 -3.8516 -2.0339 0.9817
2.4889 -3.3162 -2.0339 0.9817
-2.4609 -3.0519 -2.0338 0.9825
-2.1827 -3.2567 -2.0338 0.9825
-1.8874 -3.4362 -2.0338 0.9825
-0.2409 -3.9131 -2.0339 0.9825
1.4518 -3.6418 -2.0339 0.9825
2.0681 -3.3307 -2.0339 0.9825
2.3534 -3.1356 -2.0339 0.9825
-2.3310 -2.8907 -2.0338 0.9832
-2.0674 -3.0847 -2.0338 0.9832
-1.1891 -3.5179 -2.0339 0.9832
0.0991 -3.7121 -2.0339 0.9832
0.4256 -3.6890 -2.0339 0.9832
0.7487 -3.6372 -2.0339 0.9832
1.0661 -3.5571 -2.0339 0.9832
1.9589 -3.1548 -2.0339 0.9832
-1.1280 -3.3373 -2.0339 0.9839
-0.8298 -3.4236 -2.0339 0.9839
-0.5252 -3.4834 -2.0339 0.9839
-0.2164 -3.5161 -2.0339 0.9839
0.0940 -3.5215 -2.0339 0.9839
0.4037 -3.4996 -2.0339 0.9839
0.7103 -3.4504 -2.0339 0.9839
1.0114 -3.3745 -2.0339 0.9839
1.3045 -3.2723 -2.0339 0.9839
1.5876 -3.1448 -2.0339 0.9839
2.3545 -2.6204 -2.0339 0.9839
