ply
format ascii 1.0
element vertex 187
property float32 x
property float32 y
property float32 z
property float32 I
end_header
16.5602 -3.7273 -0.8608 0.9343
16.4412 -3.7005 -1.2357 0.9346
2.8913 -6.0696 -0.6454 0.9733
16.2063 -3.6476 -1.5948 0.9354
1.4127 -17.0625 -2.0337 0.9334
2.9488 -16.8652 -2.0337 0.9334
1.7621 -6.5296 -0.8034 0.9731
2.7968 -5.8712 -0.7725 0.9741
8.7299 -14.7289 -2.0338 0.9334
11.2386 -12.9173 -2.0339 0.9334
13.3803 -10.6838 -2.0339 0.9334
15.0850 -8.1013 -2.0339 0.9334
15.7555 -6.7050 -2.0340 0.9334
16.7053 -3.7599 -2.0340 0.9334
2.4722 -14.1392 -2.0338 0.9437
2.2811 -6.1709 -0.9322 0.9738
7.3189 -12.3482 -2.0338 0.9437
9.4220 -10.8293 -2.0339 0.9437
11.2174 -8.9569 -2.0339 0.9437
11.9810 -7.9067 -2.0339 0.9437
13.2086 -5.6212 -2.0340 0.9437
13.6627 -4.4047 -2.0340 0.9437
-1.2123 -12.2856 -2.0338 0.9512
-0.0972 -12.3450 -2.0338 0.9512
1.6598 -6.1506 -1.0495 0.9745
2.2282 -6.0279 -1.0587 0.9743
2.7883 -5.8534 -1.0681 0.9741
6.2948 -10.6204 -2.0338 0.9512
8.1037 -9.3142 -2.0339 0.9512
8.9123 -8.5438 -2.0339 0.9512
10.8770 -5.8414 -2.0339 0.9512
11.3605 -4.8347 -2.0339 0.9512
-0.0852 -10.8199 -2.0338 0.9569
2.1680 -5.8650 -1.1753 0.9749
2.7156 -5.7009 -1.1869 0.9746
7.1025 -8.1635 -2.0339 0.9569
7.8112 -7.4883 -2.0339 0.9569
9.0316 -5.9602 -2.0339 0.9569
9.5332 -5.1198 -2.0339 0.9569
10.2991 -3.3203 -2.0340 0.9569
-0.9448 -9.5750 -2.0338 0.9614
0.7939 -9.5887 -2.0338 0.9614
1.6572 -9.4778 -2.0338 0.9614
1.6585 -6.1457 -1.3456 0.9743
2.1325 -5.7691 -1.3001 0.9752
6.9458 -6.6587 -2.0339 0.9614
7.5191 -6.0038 -2.0339 0.9614
8.8538 -3.7679 -2.0339 0.9614
9.1581 -2.9525 -2.0339 0.9614
9.3875 -2.1129 -2.0340 0.9614
-0.8498 -8.6118 -2.0338 0.9651
-0.0681 -8.6534 -2.0338 0.9651
1.6031 -5.9405 -1.4461 0.9750
2.1413 -5.7929 -1.4515 0.9749
3.4266 -5.7814 -1.5795 0.9728
5.0671 -7.0153 -2.0339 0.9651
6.2470 -5.9888 -2.0339 0.9651
7.6242 -4.0945 -2.0339 0.9651
7.9630 -3.3889 -2.0339 0.9651
-0.0618 -7.8548 -2.0338 0.9681
0.6482 -7.8283 -2.0338 0.9681
1.5866 -5.8792 -1.5767 0.9752
2.1618 -5.8482 -1.6143 0.9746
4.0052 -6.7575 -2.0339 0.9681
5.1561 -5.9263 -2.0339 0.9681
6.5564 -4.3268 -2.0339 0.9681
6.9206 -3.7167 -2.0339 0.9681
7.2282 -3.0761 -2.0339 0.9681
7.6639 -1.7249 -2.0339 0.9681
2.1902 -5.9251 -1.7883 0.9741
2.8368 -5.9552 -1.8674 0.9730
3.6631 -6.1804 -2.0339 0.9706
4.7158 -5.4202 -2.0339 0.9706
5.1862 -4.9719 -2.0339 0.9706
5.9965 -3.9573 -2.0339 0.9706
6.3296 -3.3993 -2.0339 0.9706
6.8382 -2.2045 -2.0339 0.9706
-0.6494 -6.5804 -2.0338 0.9727
-0.0521 -6.6122 -2.0338 0.9727
1.1389 -6.5136 -2.0338 0.9727
2.2927 -6.2023 -2.0339 0.9727
2.8437 -5.9698 -2.0339 0.9727
4.7734 -4.5761 -2.0339 0.9727
6.0846 -2.5894 -2.0339 0.9727
6.2938 -2.0290 -2.0339 0.9727
0.5049 -6.0977 -2.0338 0.9745
1.0538 -6.0271 -2.0338 0.9745
2.1214 -5.7391 -2.0339 0.9745
2.6314 -5.5239 -2.0339 0.9745
3.5827 -4.9601 -2.0339 0.9745
4.4169 -4.2344 -2.0339 0.9745
4.7815 -3.8179 -2.0339 0.9745
5.1069 -3.3703 -2.0339 0.9745
5.3907 -2.8950 -2.0339 0.9745
5.6302 -2.3961 -2.0339 0.9745
5.8237 -1.8775 -2.0339 0.9745
5.9695 -1.3436 -2.0339 0.9745
-0.5585 -5.6598 -2.0338 0.9761
0.4693 -5.6680 -2.0338 0.9761
1.4818 -5.4910 -2.0339 0.9761
2.4459 -5.1346 -2.0339 0.9761
3.7331 -4.2908 -2.0339 0.9761
4.4445 -3.5488 -2.0339 0.9761
4.7470 -3.1327 -2.0339 0.9761
5.2334 -2.2272 -2.0339 0.9761
5.4132 -1.7452 -2.0339 0.9761
5.5488 -1.2489 -2.0339 0.9761
-0.5212 -5.2816 -2.0338 0.9775
0.9141 -5.2280 -2.0338 0.9775
1.3828 -5.1240 -2.0339 0.9775
1.8402 -4.9781 -2.0339 0.9775
2.2824 -4.7915 -2.0339 0.9775
3.1076 -4.3024 -2.0339 0.9775
3.4837 -4.0040 -2.0339 0.9775
4.4298 -2.9234 -2.0339 0.9775
4.6759 -2.5112 -2.0339 0.9775
0.4100 -4.9525 -2.0338 0.9788
1.7230 -4.6612 -2.0339 0.9788
2.1371 -4.4864 -2.0339 0.9788
2.5338 -4.2750 -2.0339 0.9788
2.9098 -4.0285 -2.0339 0.9788
3.2619 -3.7491 -2.0339 0.9788
3.5873 -3.4391 -2.0339 0.9788
3.8834 -3.1009 -2.0339 0.9788
4.1478 -2.7373 -2.0339 0.9788
4.3782 -2.3512 -2.0339 0.9788
4.5727 -1.9460 -2.0339 0.9788
4.7299 -1.5249 -2.0339 0.9788
4.8483 -1.0912 -2.0339 0.9788
-0.4583 -4.6442 -2.0338 0.9798
0.3850 -4.6509 -2.0339 0.9798
1.2159 -4.5056 -2.0339 0.9798
1.6181 -4.3773 -2.0339 0.9798
2.3795 -4.0146 -2.0339 0.9798
2.7325 -3.7832 -2.0339 0.9798
3.3688 -3.2296 -2.0339 0.9798
3.6470 -2.9120 -2.0339 0.9798
3.8952 -2.5705 -2.0339 0.9798
4.1115 -2.2081 -2.0339 0.9798
4.4418 -1.4320 -2.0339 0.9798
1.1448 -4.2422 -2.0339 0.9808
1.8896 -3.9669 -2.0339 0.9808
2.2404 -3.7799 -2.0339 0.9808
2.5727 -3.5620 -2.0339 0.9808
2.8841 -3.3149 -2.0339 0.9808
3.8711 -2.0789 -2.0339 0.9808
4.2868 -0.9649 -2.0339 0.9808
-0.0327 -4.1462 -2.0339 0.9817
0.7141 -4.0844 -2.0339 0.9817
1.0803 -4.0031 -2.0339 0.9817
1.4376 -3.8892 -2.0339 0.9817
2.1141 -3.5669 -2.0339 0.9817
2.7216 -3.1282 -2.0339 0.9817
2.9932 -2.8694 -2.0339 0.9817
3.2402 -2.5872 -2.0339 0.9817
3.4607 -2.2839 -2.0339 0.9817
3.6530 -1.9618 -2.0339 0.9817
3.8154 -1.6237 -2.0339 0.9817
-0.3850 -3.9015 -2.0339 0.9825
0.3235 -3.9071 -2.0339 0.9825
0.6752 -3.8619 -2.0339 0.9825
1.3593 -3.6773 -2.0339 0.9825
1.6860 -3.5395 -2.0339 0.9825
1.9990 -3.3726 -2.0339 0.9825
2.2955 -3.1782 -2.0339 0.9825
2.5734 -2.9578 -2.0339 0.9825
2.8301 -2.7131 -2.0339 0.9825
3.0637 -2.4463 -2.0339 0.9825
3.2723 -2.1595 -2.0339 0.9825
-0.3647 -3.6955 -2.0339 0.9832
0.6396 -3.6580 -2.0339 0.9832
1.2875 -3.4831 -2.0339 0.9832
1.8934 -3.1945 -2.0339 0.9832
2.1743 -3.0104 -2.0339 0.9832
2.4375 -2.8016 -2.0339 0.9832
2.6807 -2.5699 -2.0339 0.9832
2.9020 -2.3171 -2.0339 0.9832
1.8575 -0.4181 -1.0428 0.9914
0.6067 -3.4701 -2.0339 0.9839
0.9178 -3.4011 -2.0339 0.9839
1.2214 -3.3043 -2.0339 0.9839
2.0627 -2.8558 -2.0339 0.9839
2.5430 -2.4379 -2.0339 0.9839
2.9403 -1.9404 -2.0339 0.9839
3.1036 -1.6668 -2.0339 0.9839
1.7664 -0.7518 -1.1084 0.9912
1.7223 -0.5553 -1.0447 0.9917
