ply
format ascii 1.0
element vertex 175
property float32 x
property float32 y
property float32 z
property float32 I
end_header
17.5007 -3.4192 -0.9043 0.9311
13.1434 9.0660 -1.5329 0.9379
17.0302 -1.7847 -2.0340 0.9333
17.1214 -0.2719 -2.0340 0.9333
17.0786 1.2429 -2.0341 0.9333
15.5883 7.0882 -2.0341 0.9333
13.1813 10.9314 -2.0341 0.9333
9.8499 14.0080 -2.0341 0.9333
13.3836 -5.1911 -2.0340 0.9437
13.7902 -3.9875 -2.0340 0.9437
14.2773 -1.4962 -2.0340 0.9437
14.3178 1.0420 -2.0340 0.9437
13.9105 3.5476 -2.0341 0.9437
13.0683 5.9424 -2.0341 0.9437
11.0504 9.1643 -2.0341 0.9437
10.1970 10.1054 -2.0341 0.9437
9.2635 10.9674 -2.0341 0.9437
8.2576 11.7435 -2.0341 0.9437
11.5109 -4.4647 -2.0339 0.9512
11.8607 -3.4295 -2.0340 0.9512
12.1176 -2.3675 -2.0340 0.9512
12.2795 -1.2868 -2.0340 0.9512
12.3453 -0.1961 -2.0340 0.9512
12.3143 0.8962 -2.0340 0.9512
12.1869 1.9814 -2.0340 0.9512
11.2397 5.1109 -2.0341 0.9512
10.7438 6.0846 -2.0341 0.9512
8.7700 8.6913 -2.0341 0.9512
7.1021 10.1002 -2.0341 0.9512
10.3953 -3.0058 -2.0340 0.9569
10.7624 -1.1279 -2.0340 0.9569
10.6812 1.7366 -2.0340 0.9569
9.8510 4.4794 -2.0340 0.9569
8.9080 6.1445 -2.0340 0.9569
7.6864 7.6175 -2.0341 0.9569
6.2246 8.8523 -2.0341 0.9569
8.9711 -3.4796 -2.0339 0.9614
9.5700 -1.0029 -2.0340 0.9614
9.5971 0.6984 -2.0340 0.9614
9.4978 1.5443 -2.0340 0.9614
8.3730 4.7420 -2.0340 0.9614
7.9211 5.4637 -2.0340 0.9614
7.4070 6.1421 -2.0340 0.9614
6.2092 7.3513 -2.0340 0.9614
8.6533 -0.1374 -2.0340 0.9651
8.6316 0.6282 -2.0340 0.9651
8.5423 1.3889 -2.0340 0.9651
8.3861 2.1387 -2.0340 0.9651
8.1641 2.8718 -2.0340 0.9651
7.8782 3.5824 -2.0340 0.9651
7.1241 4.9140 -2.0340 0.9651
6.1472 6.0920 -2.0340 0.9651
4.9781 7.0796 -2.0340 0.9651
4.3326 7.4920 -2.0340 0.9651
7.3239 -2.8407 -2.0339 0.9681
7.5464 -2.1821 -2.0339 0.9681
7.8546 -0.1248 -2.0340 0.9681
7.6121 1.9413 -2.0340 0.9681
7.1511 3.2517 -2.0340 0.9681
6.4667 4.4605 -2.0340 0.9681
6.0469 5.0148 -2.0340 0.9681
5.0691 6.0015 -2.0340 0.9681
4.5186 6.4262 -2.0340 0.9681
3.9328 6.8005 -2.0340 0.9681
6.6985 -2.5981 -2.0339 0.9706
6.9020 -1.9957 -2.0339 0.9706
7.0514 -1.3777 -2.0339 0.9706
7.1659 0.5215 -2.0340 0.9706
7.0917 1.1530 -2.0340 0.9706
6.5404 2.9740 -2.0340 0.9706
6.2519 3.5407 -2.0340 0.9706
5.1033 5.0576 -2.0340 0.9706
4.1327 5.8774 -2.0340 0.9706
6.4900 -1.2680 -2.0339 0.9727
6.5768 -0.6892 -2.0339 0.9727
6.5954 0.4800 -2.0340 0.9727
6.5272 1.0612 -2.0340 0.9727
6.4078 1.6342 -2.0340 0.9727
5.0902 4.2214 -2.0340 0.9727
4.2671 5.0520 -2.0340 0.9727
3.8037 5.4095 -2.0340 0.9727
6.0054 -1.1733 -2.0339 0.9745
6.0856 -0.6378 -2.0339 0.9745
6.1181 -0.0972 -2.0340 0.9745
5.5701 2.5328 -2.0340 0.9745
4.3463 4.3072 -2.0340 0.9745
3.9484 4.6746 -2.0340 0.9745
3.5196 5.0054 -2.0340 0.9745
3.0632 5.2970 -2.0340 0.9745
5.3027 -2.0568 -2.0339 0.9761
5.5821 -1.0906 -2.0339 0.9761
5.6567 -0.5928 -2.0339 0.9761
3.2716 4.6527 -2.0340 0.9761
2.8474 4.9237 -2.0340 0.9761
4.9483 -1.9193 -2.0339 0.9775
5.0986 -1.4743 -2.0339 0.9775
5.2090 -1.0178 -2.0339 0.9775
5.3069 -0.0843 -2.0339 0.9775
4.8316 2.1970 -2.0340 0.9775
4.3691 3.0136 -2.0340 0.9775
3.7700 3.7361 -2.0340 0.9775
3.4248 4.0548 -2.0340 0.9775
3.0529 4.3417 -2.0340 0.9775
2.6571 4.5946 -2.0340 0.9775
4.6333 -1.7971 -2.0339 0.9788
4.7740 -1.3804 -2.0339 0.9788
4.8774 -0.9529 -2.0339 0.9788
4.9425 -0.5180 -2.0339 0.9788
4.9690 -0.0789 -2.0339 0.9787
4.9052 0.7975 -2.0340 0.9788
4.8155 1.2281 -2.0340 0.9787
4.6881 1.6490 -2.0340 0.9787
4.5239 2.0571 -2.0340 0.9787
3.2068 3.7966 -2.0340 0.9787
2.8586 4.0653 -2.0340 0.9787
2.4879 4.3021 -2.0340 0.9787
4.3511 -1.6877 -2.0339 0.9798
4.6065 0.7489 -2.0339 0.9798
4.5223 1.1533 -2.0340 0.9798
4.4026 1.5486 -2.0340 0.9798
4.2484 1.9318 -2.0340 0.9798
4.0610 2.2999 -2.0340 0.9798
3.5924 2.9792 -2.0340 0.9798
3.3149 3.2852 -2.0340 0.9798
3.0115 3.5654 -2.0340 0.9798
2.3364 4.0401 -2.0340 0.9798
4.0967 -1.5890 -2.0339 0.9808
4.2211 -1.2206 -2.0339 0.9808
4.3125 -0.8426 -2.0339 0.9808
4.3701 -0.4580 -2.0339 0.9808
4.3825 0.3189 -2.0339 0.9808
4.3371 0.7051 -2.0339 0.9808
4.2578 1.0858 -2.0339 0.9808
4.1451 1.4580 -2.0340 0.9808
4.0000 1.8188 -2.0340 0.9808
3.8235 2.1654 -2.0340 0.9808
3.6171 2.4950 -2.0340 0.9808
3.3823 2.8050 -2.0340 0.9808
2.8354 3.3569 -2.0340 0.9808
2.1998 3.8038 -2.0340 0.9808
4.0928 0.6654 -2.0339 0.9817
4.0179 1.0247 -2.0339 0.9817
3.1917 2.6469 -2.0340 0.9817
2.3850 3.3919 -2.0340 0.9817
2.0758 3.5895 -2.0340 0.9817
3.6553 -1.4177 -2.0339 0.9825
3.7663 -1.0890 -2.0339 0.9825
2.1007 0.3415 -1.1041 0.9905
3.7990 0.9689 -2.0339 0.9825
3.5690 1.6229 -2.0339 0.9825
3.4115 1.9321 -2.0340 0.9825
3.2274 2.2261 -2.0340 0.9825
3.0179 2.5028 -2.0340 0.9825
2.7848 2.7598 -2.0340 0.9825
2.5299 2.9952 -2.0340 0.9825
2.2552 3.2071 -2.0340 0.9825
1.9628 3.3940 -2.0340 0.9825
3.4622 -1.3429 -2.0339 0.9832
1.8556 -0.3626 -1.0355 0.9914
1.8485 -0.1937 -1.0180 0.9916
1.8516 -0.0294 -1.0142 0.9916
1.8519 0.1347 -1.0170 0.9916
1.8508 0.3009 -1.0270 0.9915
1.8571 0.4736 -1.0497 0.9913
1.9842 0.6979 -1.1520 0.9905
1.7138 -0.4955 -1.0300 0.9918
1.7141 -0.3349 -1.0083 0.9920
1.7247 -0.0274 -0.9959 0.9921
1.7227 0.1254 -0.9972 0.9921
1.7142 0.2787 -1.0027 0.9920
1.7137 0.4370 -1.0211 0.9919
1.7822 0.8104 -1.1303 0.9910
2.2732 2.6913 -2.0340 0.9839
2.0264 2.8818 -2.0340 0.9839
1.7636 3.0496 -2.0339 0.9839
