ply
format ascii 1.0
element vertex 211
property float32 x
property float32 y
property float32 z
property float32 I
end_header
-12.7737 -7.8291 -1.4383 0.9416
-11.4600 -8.5287 -1.3715 0.9442
-16.0871 5.8617 -2.0338 0.9334
-17.1202 -0.1762 -2.0338 0.9334
-17.0350 -1.7129 -2.0337 0.9334
-16.8123 -3.2359 -2.0337 0.9334
-16.4537 -4.7326 -2.0337 0.9334
-11.2465 -8.3698 -1.6653 0.9451
-12.7610 -11.4134 -2.0337 0.9334
-10.5134 -13.5121 -2.0337 0.9334
-9.2574 -14.4016 -2.0337 0.9334
-6.5319 -15.8255 -2.0337 0.9334
-13.4868 4.9142 -2.0338 0.9437
-13.8735 3.6831 -2.0338 0.9437
-14.3084 1.1419 -2.0338 0.9437
-14.3530 -0.1477 -2.0338 0.9437
-14.2816 -1.4361 -2.0338 0.9437
-13.7942 -3.9677 -2.0337 0.9437
-13.3821 -5.1904 -2.0337 0.9437
-12.8619 -6.3712 -2.0337 0.9437
-10.6984 -9.5687 -2.0337 0.9437
-9.7959 -10.4907 -2.0337 0.9437
-7.7612 -12.0739 -2.0337 0.9437
-6.6455 -12.7221 -2.0337 0.9437
-4.2625 -13.7058 -2.0337 0.9437
-11.5998 4.2266 -2.0338 0.9512
-12.1686 2.0834 -2.0338 0.9512
-12.3065 0.9821 -2.0338 0.9512
-12.1229 -2.3333 -2.0338 0.9512
-11.8643 -3.4126 -2.0338 0.9512
-11.0624 -5.4799 -2.0337 0.9512
-10.5255 -6.4512 -2.0337 0.9512
-9.9036 -7.3703 -2.0337 0.9512
-9.2016 -8.2300 -2.0337 0.9512
-8.4254 -9.0231 -2.0337 0.9512
-7.5810 -9.7433 -2.0337 0.9512
-6.6753 -10.3847 -2.0337 0.9512
-4.7099 -11.4114 -2.0337 0.9512
-3.6661 -11.7883 -2.0337 0.9512
-10.1668 3.7045 -2.0339 0.9569
-10.4583 2.7765 -2.0338 0.9569
-10.7861 0.8608 -2.0338 0.9569
-10.8198 -0.1113 -2.0338 0.9569
-10.6252 -2.0450 -2.0338 0.9569
-10.3987 -2.9910 -2.0338 0.9569
-10.0879 -3.9128 -2.0338 0.9569
-9.2253 -5.6542 -2.0338 0.9569
-8.6802 -6.4598 -2.0338 0.9569
-8.0649 -7.2133 -2.0338 0.9569
-6.6445 -8.5397 -2.0337 0.9569
-9.5911 0.7655 -2.0338 0.9614
-8.6216 -4.2708 -2.0338 0.9614
-8.2032 -5.0278 -2.0338 0.9614
-7.7186 -5.7442 -2.0338 0.9614
-7.1715 -6.4142 -2.0338 0.9614
-6.5665 -7.0323 -2.0338 0.9614
-5.9083 -7.5936 -2.0338 0.9614
-5.2025 -8.0935 -2.0338 0.9614
-3.6708 -8.8936 -2.0338 0.9614
-8.3641 2.2205 -2.0339 0.9651
-8.6533 -0.0891 -2.0338 0.9651
-8.6103 -0.8658 -2.0338 0.9651
-8.0680 -3.1293 -2.0338 0.9651
-6.9421 -5.1664 -2.0338 0.9651
-6.4500 -5.7689 -2.0338 0.9651
-5.9059 -6.3249 -2.0338 0.9651
-4.6792 -7.2794 -2.0338 0.9651
-4.0066 -7.6702 -2.0338 0.9651
-3.3015 -7.9990 -2.0338 0.9651
-2.5698 -8.2632 -2.0338 0.9651
-7.3806 2.6893 -2.0339 0.9681
-7.7425 1.3256 -2.0338 0.9681
-7.8302 0.6249 -2.0338 0.9681
-7.8547 -0.0808 -2.0338 0.9681
-7.8157 -0.7859 -2.0338 0.9681
-6.3015 -4.6896 -2.0338 0.9681
-5.8548 -5.2366 -2.0338 0.9681
-4.8236 -6.1995 -2.0338 0.9681
-4.2474 -6.6076 -2.0338 0.9681
-3.6369 -6.9624 -2.0338 0.9681
-2.9968 -7.2608 -2.0338 0.9681
-2.3327 -7.5007 -2.0338 0.9681
-6.9439 1.8435 -2.0339 0.9706
-7.1616 0.5715 -2.0338 0.9706
-7.0548 -1.3579 -2.0338 0.9706
-6.9043 -1.9859 -2.0338 0.9706
-5.3548 -4.7894 -2.0338 0.9706
-4.9031 -5.2509 -2.0338 0.9706
-4.4117 -5.6701 -2.0338 0.9706
-3.8847 -6.0434 -2.0338 0.9706
-2.7409 -6.6408 -2.0338 0.9706
-2.1335 -6.8602 -2.0338 0.9706
-6.3911 1.6967 -2.0339 0.9727
-6.5176 1.1159 -2.0339 0.9727
-6.5914 0.5260 -2.0338 0.9727
-6.1649 -2.3912 -2.0338 0.9727
-5.9253 -2.9351 -2.0338 0.9727
-5.6377 -3.4554 -2.0338 0.9727
-5.3046 -3.9477 -2.0338 0.9727
-4.9286 -4.4082 -2.0338 0.9727
-4.5128 -4.8329 -2.0338 0.9727
-4.0605 -5.2187 -2.0338 0.9727
-3.0615 -5.8609 -2.0338 0.9727
-2.5228 -6.1122 -2.0338 0.9727
-1.9636 -6.3141 -2.0338 0.9727
-5.7489 2.0947 -2.0339 0.9745
-5.9138 1.5700 -2.0339 0.9745
-6.0992 0.4868 -2.0339 0.9745
-5.7044 -2.2126 -2.0338 0.9745
-5.4827 -2.7159 -2.0338 0.9745
-4.9084 -3.6529 -2.0338 0.9745
-4.1758 -4.4720 -2.0338 0.9745
-3.7573 -4.8290 -2.0338 0.9745
-2.8329 -5.4232 -2.0338 0.9745
-1.8170 -5.8425 -2.0338 0.9745
-5.6694 0.4524 -2.0339 0.9761
-5.3024 -2.0566 -2.0338 0.9761
-4.8490 -2.9720 -2.0338 0.9761
-4.2391 -3.7915 -2.0338 0.9761
-3.4925 -4.4887 -2.0338 0.9761
-2.6332 -5.0410 -2.0338 0.9761
-1.6890 -5.4308 -2.0338 0.9761
-5.1296 1.3618 -2.0339 0.9775
-5.3070 -0.0546 -2.0339 0.9775
-5.1005 -1.4671 -2.0338 0.9775
-3.9558 -3.5381 -2.0338 0.9775
-3.6221 -3.8791 -2.0338 0.9775
-3.2591 -4.1887 -2.0338 0.9775
-4.6691 1.7013 -2.0339 0.9788
-4.8030 1.2751 -2.0339 0.9788
-2.1180 0.3626 -0.8795 0.9908
-2.1187 0.1691 -0.8699 0.9909
-2.1219 -0.0219 -0.8685 0.9909
-2.1143 -0.2126 -0.8697 0.9909
-2.1212 -0.4083 -0.8841 0.9907
-4.6331 -1.7970 -2.0338 0.9788
-4.4530 -2.2058 -2.0338 0.9788
-3.7040 -3.3128 -2.0338 0.9788
-3.3915 -3.6321 -2.0338 0.9788
-3.0516 -3.9220 -2.0338 0.9788
-2.6871 -4.1802 -2.0338 0.9788
-1.8959 -4.5935 -2.0338 0.9788
-1.4757 -4.7452 -2.0338 0.9788
-4.3848 1.5977 -2.0339 0.9798
-1.9575 0.5196 -0.8826 0.9912
-1.9051 0.3262 -0.8424 0.9916
-1.9185 -0.0198 -0.8362 0.9917
-1.9050 -0.3667 -0.8455 0.9916
-2.0212 -0.5814 -0.9166 0.9909
-4.3509 -1.6876 -2.0338 0.9798
-4.1818 -2.0715 -2.0338 0.9798
-3.7437 -2.7862 -2.0338 0.9798
-2.8658 -3.6832 -2.0338 0.9798
-2.5234 -3.9256 -2.0338 0.9798
-2.1607 -4.1364 -2.0338 0.9798
-1.7805 -4.3137 -2.0338 0.9798
-1.3859 -4.4562 -2.0338 0.9798
-1.6103 0.2757 -0.7562 0.9928
-1.6036 -0.3087 -0.7559 0.9928
-4.0964 -1.5889 -2.0338 0.9808
-3.7462 -2.2961 -2.0338 0.9808
-2.6982 -3.4678 -2.0338 0.9808
-2.0343 -3.8945 -2.0338 0.9808
-1.3048 -4.1956 -2.0338 0.9808
-1.3429 0.2299 -0.6683 0.9939
-1.3535 -0.1361 -0.6673 0.9940
-1.3363 -0.2572 -0.6675 0.9940
-1.2555 -0.4870 -0.6605 0.9940
-3.7154 -1.8404 -2.0338 0.9817
-3.5351 -2.1667 -2.0338 0.9817
-3.3262 -2.4754 -2.0338 0.9817
-2.8298 -3.0305 -2.0338 0.9817
-2.5462 -3.2724 -2.0338 0.9817
-1.5820 -3.8327 -2.0338 0.9817
-1.1314 0.4122 -0.6247 0.9946
-1.1614 0.3083 -0.6234 0.9946
-1.1890 0.2035 -0.6258 0.9946
-1.1937 -0.0123 -0.6193 0.9946
-1.2002 -0.1207 -0.6258 0.9946
-1.1828 -0.2277 -0.6249 0.9946
-1.1537 -0.3319 -0.6228 0.9946
-1.1248 -0.4363 -0.6259 0.9946
-3.5130 -1.7402 -2.0339 0.9825
-3.3425 -2.0487 -2.0338 0.9825
-2.6757 -2.8655 -2.0338 0.9825
-2.4075 -3.0942 -2.0338 0.9825
-2.1199 -3.2979 -2.0338 0.9825
-1.4957 -3.6239 -2.0338 0.9825
-1.0227 0.3726 -0.5962 0.9950
-1.0404 0.2762 -0.5896 0.9951
-1.0675 0.1827 -0.5932 0.9951
-1.0772 -0.0111 -0.5900 0.9951
-1.0791 -0.1086 -0.5940 0.9951
-1.0374 -0.2984 -0.5912 0.9951
-1.0166 -0.3943 -0.5972 0.9950
-3.1661 -1.9405 -2.0339 0.9832
-2.9790 -2.2170 -2.0338 0.9832
-2.7679 -2.4756 -2.0338 0.9832
-2.5343 -2.7141 -2.0338 0.9832
-2.2804 -2.9308 -2.0338 0.9832
-1.7193 -3.2914 -2.0338 0.9832
-1.4168 -3.4325 -2.0338 0.9832
-1.1028 -3.5459 -2.0339 0.9832
-0.9457 0.3446 -0.5811 0.9954
-0.9600 0.2548 -0.5735 0.9954
-0.9880 -0.0994 -0.5733 0.9954
-0.9408 -0.3650 -0.5826 0.9953
-2.1632 -2.7803 -2.0339 0.9839
-1.9048 -2.9633 -2.0339 0.9839
-1.6310 -3.1224 -2.0339 0.9839
-1.3440 -3.2563 -2.0339 0.9839
