ply
format ascii 1.0
element vertex 181
property float32 x
property float32 y
property float32 z
property float32 I
end_header
-11.7111 -8.3042 -1.3783 0.9439
-16.7950 3.3278 -2.0338 0.9334
-17.0264 1.8002 -2.0338 0.9334
-17.1192 0.2580 -2.0338 0.9334
-17.0726 -1.2862 -2.0337 0.9334
-16.8870 -2.8200 -2.0337 0.9334
-16.5640 -4.3307 -2.0337 0.9334
-16.1061 -5.8062 -2.0337 0.9334
-15.5170 -7.2344 -2.0337 0.9334
-14.8016 -8.6037 -2.0337 0.9334
-9.5668 -14.1980 -2.0337 0.9334
-8.2479 -15.0027 -2.0337 0.9334
-6.8620 -15.6851 -2.0337 0.9334
-5.4202 -16.2398 -2.0337 0.9334
-14.0803 2.7899 -2.0338 0.9437
-14.2743 1.5092 -2.0338 0.9437
-14.3521 0.2163 -2.0338 0.9437
-13.5029 -4.8677 -2.0337 0.9437
-12.4093 -7.2131 -2.0337 0.9437
-11.7085 -8.3023 -2.0337 0.9437
-10.9124 -9.3239 -2.0337 0.9437
-9.0609 -11.1318 -2.0337 0.9437
-4.5441 -13.6150 -2.0337 0.9437
-12.1103 2.3995 -2.0338 0.9512
-12.2772 1.2980 -2.0338 0.9512
-12.3441 0.1861 -2.0338 0.9512
-12.1768 -2.0334 -2.0338 0.9512
-10.6731 -6.2039 -2.0337 0.9512
-10.0704 -7.1408 -2.0337 0.9512
-9.3857 -8.0195 -2.0337 0.9512
-7.7932 -9.5744 -2.0337 0.9512
-5.9474 -10.8181 -2.0337 0.9512
-4.9480 -11.3102 -2.0337 0.9512
-10.7605 1.1377 -2.0338 0.9569
-10.6725 -1.7822 -2.0338 0.9569
-10.4683 -2.7370 -2.0338 0.9569
-10.1789 -3.6695 -2.0338 0.9569
-8.2262 -7.0288 -2.0338 0.9569
-6.0462 -8.9731 -2.0337 0.9569
-4.3368 -9.9130 -2.0338 0.9569
-3.4255 -10.2636 -2.0338 0.9569
-9.3086 -2.4338 -2.0338 0.9614
-9.0513 -3.2629 -2.0338 0.9614
-8.7203 -4.0656 -2.0338 0.9614
-8.3183 -4.8351 -2.0338 0.9614
-6.7217 -6.8841 -2.0338 0.9614
-6.0738 -7.4619 -2.0338 0.9614
-4.6352 -8.4312 -2.0338 0.9614
-3.8563 -8.8148 -2.0338 0.9614
-8.4888 1.6819 -2.0338 0.9651
-8.6527 0.1304 -2.0338 0.9651
-8.6292 -0.6501 -2.0338 0.9651
-8.5355 -1.4254 -2.0338 0.9651
-7.8431 -3.6566 -2.0338 0.9651
-7.4815 -4.3488 -2.0338 0.9651
-6.5791 -5.6214 -2.0338 0.9651
-6.0455 -6.1916 -2.0338 0.9651
-5.4628 -6.7113 -2.0338 0.9651
-4.1689 -7.5831 -2.0338 0.9651
-3.4684 -7.9281 -2.0338 0.9651
-2.7396 -8.2085 -2.0338 0.9651
-7.8543 0.1184 -2.0338 0.9681
-7.7478 -1.2938 -2.0338 0.9681
-7.5996 -1.9870 -2.0338 0.9681
-7.1193 -3.3192 -2.0338 0.9681
-6.7911 -3.9474 -2.0338 0.9681
-5.9720 -5.1026 -2.0338 0.9681
-4.9587 -6.0920 -2.0338 0.9681
-4.3893 -6.5142 -2.0338 0.9681
-2.4868 -7.4509 -2.0338 0.9681
-7.1835 0.1083 -2.0338 0.9706
-7.0861 -1.1833 -2.0338 0.9706
-6.9507 -1.8173 -2.0338 0.9706
-6.7585 -2.4365 -2.0338 0.9706
-6.5114 -3.0357 -2.0338 0.9706
-4.0145 -5.9579 -2.0338 0.9706
-2.8795 -6.5819 -2.0338 0.9706
-2.2745 -6.8147 -2.0338 0.9706
-6.4864 1.2852 -2.0339 0.9727
-6.6117 0.0997 -2.0338 0.9727
-6.5221 -1.0891 -2.0338 0.9727
-6.2205 -2.2425 -2.0338 0.9727
-5.7168 -3.3230 -2.0338 0.9727
-5.3939 -3.8247 -2.0338 0.9727
-5.0272 -4.2954 -2.0338 0.9727
-4.6195 -4.7311 -2.0338 0.9727
-4.1742 -5.1282 -2.0338 0.9727
-3.6949 -5.4836 -2.0338 0.9727
-2.0934 -6.2722 -2.0338 0.9727
-6.0019 1.1892 -2.0339 0.9745
-6.1012 -0.4597 -2.0338 0.9745
-5.9195 -1.5477 -2.0338 0.9745
-4.6518 -3.9746 -2.0338 0.9745
-4.2745 -4.3778 -2.0338 0.9745
-3.8624 -4.7452 -2.0338 0.9745
-2.9477 -5.3616 -2.0338 0.9745
-1.9370 -5.8038 -2.0338 0.9745
-5.5789 1.1054 -2.0339 0.9761
-5.6867 0.0857 -2.0339 0.9761
-5.5024 -1.4386 -2.0338 0.9761
-5.1546 -2.4032 -2.0338 0.9761
-4.9170 -2.8580 -2.0338 0.9761
-3.9733 -4.0692 -2.0338 0.9761
-3.1780 -4.7165 -2.0338 0.9761
-2.7400 -4.9838 -2.0338 0.9761
-2.2795 -5.2105 -2.0338 0.9761
-1.8005 -5.3948 -2.0338 0.9761
-5.2779 0.5580 -2.0339 0.9775
-5.3067 0.0800 -2.0339 0.9775
-5.2348 -0.8741 -2.0338 0.9775
-5.1346 -1.3425 -2.0338 0.9775
-4.9928 -1.7999 -2.0338 0.9775
-4.8101 -2.2426 -2.0338 0.9775
-4.5884 -2.6671 -2.0338 0.9775
-4.3293 -3.0698 -2.0338 0.9775
-4.0349 -3.4476 -2.0338 0.9775
-3.7077 -3.7973 -2.0338 0.9775
-3.3504 -4.1161 -2.0338 0.9775
-2.9657 -4.4013 -2.0338 0.9775
-2.1272 -4.8623 -2.0338 0.9775
-1.6802 -5.0343 -2.0338 0.9775
-2.1218 0.4204 -0.8853 0.9907
-2.1222 0.0320 -0.8687 0.9909
-2.1195 -0.1597 -0.8699 0.9909
-2.1172 -0.3536 -0.8785 0.9908
-4.6749 -1.6853 -2.0338 0.9788
-4.2963 -2.4973 -2.0338 0.9788
-4.0536 -2.8744 -2.0338 0.9788
-3.7780 -3.2281 -2.0338 0.9788
-2.7768 -4.1211 -2.0338 0.9788
-1.5732 -4.7138 -2.0338 0.9788
-1.9047 0.3774 -0.8462 0.9916
-1.9094 0.2019 -0.8368 0.9917
-1.9187 0.0289 -0.8363 0.9917
-1.9461 -0.5088 -0.8767 0.9913
-4.0346 -2.3452 -2.0338 0.9798
-3.8068 -2.6994 -2.0338 0.9798
-2.9460 -3.6193 -2.0338 0.9798
-1.8705 -4.2755 -2.0338 0.9798
-1.4774 -4.4267 -2.0338 0.9798
-1.6015 0.3173 -0.7557 0.9928
-1.6079 0.1700 -0.7484 0.9929
-1.5747 0.0237 -0.7290 0.9931
-3.9823 -1.8566 -2.0338 0.9808
-3.7987 -2.2081 -2.0338 0.9808
-3.5842 -2.5415 -2.0338 0.9808
-3.3405 -2.8543 -2.0338 0.9808
-1.7611 -4.0255 -2.0338 0.9808
-1.3345 0.2644 -0.6673 0.9940
-1.3534 0.1430 -0.6676 0.9940
-1.3404 0.0202 -0.6576 0.9940
-1.3526 -0.1019 -0.6654 0.9940
-1.3440 -0.2245 -0.6684 0.9939
-1.2651 -0.4561 -0.6597 0.9940
-3.7579 -1.7520 -2.0338 0.9817
-3.3823 -2.3983 -2.0338 0.9817
-3.1523 -2.6934 -2.0338 0.9817
-1.6619 -3.7987 -2.0338 0.9817
-1.3127 -3.9330 -2.0338 0.9817
-1.1810 0.2340 -0.6246 0.9946
-1.2003 -0.0905 -0.6245 0.9946
-1.1901 -0.1988 -0.6259 0.9946
-1.1627 -0.3040 -0.6235 0.9946
-2.7389 -2.8051 -2.0338 0.9825
-1.2412 -3.7188 -2.0338 0.9825
-1.0786 0.1140 -0.5941 0.9951
-1.0809 -0.0815 -0.5937 0.9951
-1.0684 -0.1785 -0.5933 0.9951
-0.9928 -0.4629 -0.6000 0.9950
-3.2104 -1.8661 -2.0339 0.9832
-3.0291 -2.1479 -2.0339 0.9832
-2.8232 -2.4122 -2.0338 0.9832
-2.0751 -3.0796 -2.0338 0.9832
-1.4884 -3.4021 -2.0338 0.9832
-0.9753 0.1932 -0.5740 0.9954
-0.9876 0.1044 -0.5734 0.9954
-0.9894 -0.0746 -0.5728 0.9954
-0.9805 -0.1638 -0.5739 0.9954
-0.9464 -0.3412 -0.5808 0.9954
-2.4610 -2.5205 -2.0339 0.9839
-1.4120 -3.2274 -2.0339 0.9839
