ply
format ascii 1.0
element vertex 197
property float32 x
property float32 y
property float32 z
property float32 I
end_header
16.1259 -4.1446 -1.5985 0.9353
11.1462 -12.9971 -2.0339 0.9334
13.2324 -10.8663 -2.0339 0.9334
14.1286 -9.6729 -2.0339 0.9334
15.5929 -7.0749 -2.0340 0.9334
16.1499 -5.6903 -2.0340 0.9334
16.5842 -4.2623 -2.0340 0.9334
16.8926 -2.8020 -2.0340 0.9333
17.0726 -1.3203 -2.0340 0.9333
17.1228 0.1714 -2.0340 0.9333
17.0430 1.6619 -2.0341 0.9333
16.8336 3.1397 -2.0341 0.9333
16.0338 6.0129 -2.0341 0.9333
15.4493 7.3863 -2.0341 0.9333
8.3601 -11.6685 -2.0338 0.9437
11.0935 -9.1099 -2.0339 0.9437
13.9034 -3.5733 -2.0340 0.9437
14.3127 -1.1069 -2.0340 0.9437
13.8296 3.8511 -2.0341 0.9437
13.4418 5.0408 -2.0341 0.9437
6.2891 -10.6238 -2.0338 0.9512
8.0371 -9.3717 -2.0339 0.9512
9.5414 -7.8352 -2.0339 0.9512
11.6448 -4.1029 -2.0340 0.9512
12.2886 1.1983 -2.0340 0.9512
11.8945 3.3122 -2.0340 0.9512
6.3021 -8.7960 -2.0339 0.9569
7.7327 -7.5693 -2.0339 0.9569
8.3625 -6.8672 -2.0339 0.9569
8.9288 -6.1130 -2.0339 0.9569
10.4806 -2.6937 -2.0340 0.9569
10.6754 -1.7708 -2.0340 0.9569
10.7891 -0.8344 -2.0340 0.9569
10.8208 0.1083 -2.0340 0.9569
10.1325 3.7998 -2.0340 0.9569
9.7632 4.6677 -2.0340 0.9569
3.4459 -5.8210 -1.4299 0.9727
6.8760 -6.7307 -2.0339 0.9614
8.3828 -4.7237 -2.0339 0.9614
8.7624 -3.9757 -2.0339 0.9614
9.5937 -0.7419 -2.0340 0.9614
9.6220 0.0963 -2.0340 0.9614
9.5770 0.9339 -2.0340 0.9614
9.0099 3.3788 -2.0340 0.9614
5.6336 -6.5691 -2.0339 0.9651
7.1409 -4.8888 -2.0339 0.9651
7.5395 -4.2485 -2.0339 0.9651
8.6540 0.0866 -2.0340 0.9651
8.3372 2.3216 -2.0340 0.9651
8.1034 3.0388 -2.0340 0.9651
7.8080 3.7330 -2.0340 0.9651
4.5750 -6.3855 -2.0339 0.9681
5.1137 -5.9629 -2.0339 0.9681
5.6136 -5.4949 -2.0339 0.9681
6.8437 -3.8564 -2.0339 0.9681
7.4091 -2.6105 -2.0339 0.9681
7.6084 -1.9554 -2.0339 0.9681
7.7497 -1.2854 -2.0340 0.9681
7.8186 0.7624 -2.0340 0.9681
7.7225 1.4404 -2.0340 0.9681
7.3556 2.7584 -2.0340 0.9681
3.6598 -6.1824 -2.0339 0.9706
4.6770 -5.4537 -2.0339 0.9706
5.5523 -4.5596 -2.0339 0.9706
6.2593 -3.5271 -2.0339 0.9706
6.5427 -2.9686 -2.0339 0.9706
6.7764 -2.3876 -2.0339 0.9706
6.9586 -1.7884 -2.0339 0.9706
7.1634 -0.5540 -2.0340 0.9706
7.1509 0.6973 -2.0340 0.9706
6.9215 1.9274 -2.0340 0.9706
6.7274 2.5229 -2.0340 0.9706
6.4821 3.0991 -2.0340 0.9706
3.3685 -5.6902 -2.0339 0.9727
3.8512 -5.3753 -2.0339 0.9727
5.1103 -4.1966 -2.0339 0.9727
6.0218 -2.7323 -2.0339 0.9727
6.2369 -2.1975 -2.0339 0.9727
6.4046 -1.6461 -2.0339 0.9727
6.5236 -1.0821 -2.0339 0.9727
6.5816 0.6418 -2.0340 0.9727
6.5007 1.2125 -2.0340 0.9727
6.1918 2.3220 -2.0340 0.9727
3.1169 -5.2652 -2.0339 0.9745
3.5636 -4.9738 -2.0339 0.9745
3.9832 -4.6446 -2.0339 0.9745
5.7711 -2.0334 -2.0339 0.9745
5.9263 -1.5231 -2.0339 0.9745
6.1007 -0.4718 -2.0339 0.9745
6.1186 0.0612 -2.0340 0.9745
6.0901 0.5938 -2.0340 0.9745
5.7294 2.1486 -2.0340 0.9745
2.8972 -4.8942 -2.0339 0.9761
3.3124 -4.6233 -2.0339 0.9761
3.7025 -4.3173 -2.0339 0.9761
4.6930 -3.2130 -2.0339 0.9761
4.9550 -2.7922 -2.0339 0.9761
5.1794 -2.3500 -2.0339 0.9761
5.3644 -1.8901 -2.0339 0.9761
5.5086 -1.4158 -2.0339 0.9761
5.6110 -0.9307 -2.0339 0.9761
5.6707 -0.4386 -2.0339 0.9761
5.6874 0.0569 -2.0339 0.9761
5.5913 1.0428 -2.0340 0.9761
5.4793 1.5258 -2.0340 0.9761
5.1314 2.4533 -2.0340 0.9761
2.7036 -4.5671 -2.0339 0.9775
3.0911 -4.3143 -2.0339 0.9775
3.7928 -3.7126 -2.0339 0.9775
4.3794 -2.9983 -2.0339 0.9775
5.0059 -1.7638 -2.0339 0.9775
5.1404 -1.3212 -2.0339 0.9775
5.2360 -0.8685 -2.0339 0.9775
5.2918 -0.4093 -2.0339 0.9775
5.3073 0.0531 -2.0339 0.9775
5.2825 0.5151 -2.0340 0.9775
5.2176 0.9731 -2.0340 0.9775
5.1130 1.4238 -2.0340 0.9775
4.7885 2.2894 -2.0340 0.9775
2.5315 -4.2763 -2.0339 0.9788
2.8943 -4.0397 -2.0339 0.9788
3.2351 -3.7723 -2.0339 0.9788
3.8405 -3.1538 -2.0339 0.9788
4.1006 -2.8074 -2.0339 0.9788
4.6872 -1.6515 -2.0339 0.9788
4.8132 -1.2371 -2.0339 0.9788
4.9549 -0.3832 -2.0339 0.9787
4.9694 0.0497 -2.0339 0.9787
4.9462 0.4823 -2.0339 0.9788
4.8854 0.9112 -2.0340 0.9788
4.7875 1.3331 -2.0340 0.9787
4.4836 2.1436 -2.0340 0.9787
2.7180 -3.7937 -2.0339 0.9798
3.3350 -3.2645 -2.0339 0.9798
3.8509 -2.6364 -2.0339 0.9798
4.4017 -1.5509 -2.0339 0.9798
4.6041 -0.7637 -2.0339 0.9798
4.5879 0.8557 -2.0339 0.9798
4.4960 1.2520 -2.0340 0.9798
4.3699 1.6387 -2.0340 0.9798
4.2105 2.0130 -2.0340 0.9798
2.2383 -3.7811 -2.0339 0.9808
3.1400 -3.0737 -2.0339 0.9808
3.3957 -2.7885 -2.0339 0.9808
3.6257 -2.4822 -2.0339 0.9808
3.8281 -2.1571 -2.0339 0.9808
4.0014 -1.8156 -2.0339 0.9808
4.1443 -1.4602 -2.0339 0.9808
4.2557 -1.0938 -2.0339 0.9808
4.3348 -0.7190 -2.0339 0.9808
4.3810 -0.3388 -2.0339 0.9808
4.3939 0.0440 -2.0339 0.9808
4.3196 0.8057 -2.0339 0.9808
4.1143 1.5429 -2.0340 0.9808
3.9643 1.8953 -2.0340 0.9808
2.4148 -3.3705 -2.0339 0.9817
2.6992 -3.1475 -2.0339 0.9817
2.9631 -2.9005 -2.0339 0.9817
3.2044 -2.6314 -2.0339 0.9817
3.9108 -1.3779 -2.0339 0.9817
4.1270 0.4024 -2.0339 0.9817
4.0762 0.7603 -2.0339 0.9817
3.9945 1.1123 -2.0339 0.9817
3.8825 1.4560 -2.0340 0.9817
1.9971 -3.3737 -2.0339 0.9825
2.5522 -2.9760 -2.0339 0.9825
3.0299 -2.4881 -2.0339 0.9825
3.5703 -1.6200 -2.0339 0.9825
3.7972 -0.9759 -2.0339 0.9825
2.0768 -0.1606 -1.0806 0.9907
2.0743 0.2022 -1.0812 0.9907
3.6710 1.3766 -2.0339 0.9825
3.5372 1.6911 -2.0339 0.9825
1.8917 -3.1955 -2.0339 0.9832
2.1627 -3.0187 -2.0339 0.9832
2.6538 -2.5976 -2.0339 0.9832
3.0642 -2.0978 -2.0339 0.9832
1.9889 -0.7008 -1.1550 0.9904
1.8570 -0.4773 -1.0501 0.9913
1.8514 -0.3071 -1.0279 0.9915
1.8511 0.0185 -1.0139 0.9916
1.8495 0.1803 -1.0178 0.9916
1.8546 0.3459 -1.0333 0.9914
1.8661 0.5196 -1.0609 0.9912
3.4771 1.3039 -2.0339 0.9832
3.3504 1.6018 -2.0339 0.9832
1.7945 -3.0314 -2.0339 0.9839
2.0517 -2.8637 -2.0339 0.9839
2.2934 -2.6741 -2.0339 0.9839
2.5175 -2.4643 -2.0339 0.9839
2.9069 -1.9901 -2.0339 0.9839
1.7817 -0.8084 -1.1296 0.9910
1.7246 0.0172 -0.9958 0.9921
1.7204 0.1677 -0.9980 0.9920
1.7138 0.3196 -1.0065 0.9920
1.7188 0.6446 -1.0598 0.9916
3.1784 1.5195 -2.0339 0.9839
