ply
format ascii 1.0
element vertex 188
property float32 x
property float32 y
property float32 z
property float32 I
end_header
-11.6350 -8.0443 -1.0371 0.9448
-17.0777 -1.2166 -2.0337 0.9334
-16.9020 -2.7291 -2.0337 0.9334
-11.4255 -7.8994 -1.6500 0.9456
-12.1366 -12.0751 -2.0337 0.9334
-9.8078 -14.0326 -2.0337 0.9334
-8.5223 -14.8485 -2.0337 0.9334
-5.7596 -16.1225 -2.0337 0.9334
-4.3044 -16.5706 -2.0337 0.9334
-1.3035 -17.0710 -2.0337 0.9334
0.2184 -17.1195 -2.0337 0.9334
-13.0647 -5.9442 -2.0337 0.9437
-11.5996 -8.0198 -1.9981 0.9446
-11.0343 -9.1793 -2.0337 0.9437
-9.2353 -10.9874 -2.0337 0.9437
-8.2226 -11.7645 -2.0337 0.9437
-6.0105 -13.0341 -2.0337 0.9437
-4.8287 -13.5167 -2.0337 0.9437
-3.6087 -13.8923 -2.0337 0.9437
-2.3601 -14.1580 -2.0337 0.9437
-1.0928 -14.3118 -2.0337 0.9437
0.1832 -14.3524 -2.0337 0.9437
-11.6467 -4.0940 -2.0338 0.9512
-10.7381 -6.0907 -2.0337 0.9512
-10.1545 -7.0207 -2.0337 0.9512
-9.4905 -7.8951 -2.0337 0.9512
-7.0722 -10.1186 -2.0337 0.9512
-3.1037 -11.9487 -2.0337 0.9512
0.1576 -12.3443 -2.0338 0.9512
-10.7930 -0.7689 -2.0338 0.9569
-10.6819 -1.7248 -2.0338 0.9569
-9.4116 -5.3383 -2.0338 0.9569
-8.9001 -6.1534 -2.0338 0.9569
-8.3181 -6.9198 -2.0338 0.9569
-7.6704 -7.6315 -2.0337 0.9569
-6.9620 -8.2828 -2.0337 0.9569
-6.1986 -8.8686 -2.0337 0.9569
-5.3861 -9.3843 -2.0337 0.9569
-1.7791 -10.6729 -2.0338 0.9569
-0.8237 -10.7888 -2.0338 0.9569
-9.4985 -1.5337 -2.0338 0.9614
-9.3246 -2.3716 -2.0338 0.9614
-8.7576 -3.9845 -2.0338 0.9614
-7.3966 -6.1532 -2.0338 0.9614
-6.8206 -6.7860 -2.0338 0.9614
-4.7894 -8.3447 -2.0338 0.9614
-1.5820 -9.4905 -2.0338 0.9614
-8.3866 -2.1330 -2.0338 0.9651
-8.1639 -2.8697 -2.0338 0.9651
-7.5271 -4.2694 -2.0338 0.9651
-6.6525 -5.5342 -2.0338 0.9651
-6.1345 -6.1034 -2.0338 0.9651
-5.5680 -6.6243 -2.0338 0.9651
-4.3076 -7.5052 -2.0338 0.9651
-3.6237 -7.8583 -2.0338 0.9651
-2.9112 -8.1492 -2.0338 0.9651
-2.1757 -8.3756 -2.0338 0.9651
-0.6588 -8.6285 -2.0338 0.9651
0.1104 -8.6529 -2.0338 0.9651
-7.8352 -0.5582 -2.0338 0.9681
-7.7546 -1.2521 -2.0338 0.9681
-6.8325 -3.8754 -2.0338 0.9681
-6.0386 -5.0235 -2.0338 0.9681
-5.5684 -5.5402 -2.0338 0.9681
-4.4999 -6.4383 -2.0338 0.9681
-3.9101 -6.8126 -2.0338 0.9681
-1.9749 -7.6027 -2.0338 0.9681
-1.2916 -7.7481 -2.0338 0.9681
0.1002 -7.8544 -2.0338 0.9681
-6.9626 -1.7709 -2.0338 0.9706
-6.7777 -2.3824 -2.0338 0.9706
-6.5393 -2.9753 -2.0338 0.9706
-6.2490 -3.5445 -2.0338 0.9706
-5.5230 -4.5945 -2.0338 0.9706
-5.0929 -5.0671 -2.0338 0.9706
-4.6225 -5.4995 -2.0338 0.9706
-4.1157 -5.8885 -2.0338 0.9706
-3.0085 -6.5240 -2.0338 0.9706
-2.4169 -6.7655 -2.0338 0.9706
-1.8062 -6.9535 -2.0338 0.9706
-1.1812 -7.0865 -2.0338 0.9706
-0.5470 -7.1634 -2.0338 0.9706
0.0916 -7.1837 -2.0338 0.9706
-6.5279 -1.0541 -2.0338 0.9727
-6.4084 -1.6299 -2.0338 0.9727
-6.2382 -2.1928 -2.0338 0.9727
-3.7881 -5.4198 -2.0338 0.9727
-3.2915 -5.7349 -2.0338 0.9727
-1.0873 -6.5224 -2.0338 0.9727
0.0843 -6.6119 -2.0338 0.9727
-6.0403 -0.9753 -2.0338 0.9745
-5.7723 -2.0290 -2.0338 0.9745
-5.5691 -2.5338 -2.0338 0.9745
-5.3220 -3.0187 -2.0338 0.9745
-4.7037 -3.9129 -2.0338 0.9745
-3.9368 -4.6837 -2.0338 0.9745
-3.0457 -5.3066 -2.0338 0.9745
-2.0584 -5.7619 -2.0338 0.9745
-1.5383 -5.9220 -2.0338 0.9745
-4.6781 -3.2344 -2.0338 0.9761
-3.6595 -4.3537 -2.0338 0.9761
-3.2581 -4.6616 -2.0338 0.9761
-2.8311 -4.9326 -2.0338 0.9761
-2.3816 -5.1646 -2.0338 0.9761
-0.4330 -5.6709 -2.0338 0.9761
0.0725 -5.6869 -2.0338 0.9761
-5.2394 -0.8460 -2.0338 0.9775
-5.0069 -1.7600 -2.0338 0.9775
-3.7623 -3.7432 -2.0338 0.9775
-3.4148 -4.0627 -2.0338 0.9775
0.0677 -5.3069 -2.0338 0.9775
-2.1201 -0.1511 -0.8699 0.9909
-2.1161 -0.3417 -0.8773 0.9908
-2.1908 -0.5572 -0.9252 0.9903
-4.6882 -1.6479 -2.0338 0.9788
-4.5232 -2.0580 -2.0338 0.9788
-4.3224 -2.4517 -2.0338 0.9788
-4.0875 -2.8261 -2.0338 0.9788
-3.8203 -3.1781 -2.0338 0.9788
-3.5228 -3.5049 -2.0338 0.9788
-2.0809 -4.5127 -2.0338 0.9788
-1.6718 -4.6797 -2.0338 0.9788
-1.2494 -4.8098 -2.0338 0.9788
-0.8171 -4.9018 -2.0338 0.9788
0.0634 -4.9690 -2.0338 0.9788
-1.9158 -0.1365 -0.8371 0.9917
-1.9047 -0.3076 -0.8409 0.9916
-1.9262 -0.4899 -0.8662 0.9914
-4.2478 -1.9326 -2.0338 0.9798
-3.0027 -3.5724 -2.0338 0.9798
-2.3230 -4.0475 -2.0338 0.9798
-1.1733 -4.5168 -2.0338 0.9798
-0.3553 -4.6532 -2.0338 0.9798
-1.6000 -0.1140 -0.7425 0.9930
-1.5724 -0.3999 -0.7510 0.9929
-1.7991 -0.6324 -0.8827 0.9916
-3.8218 -2.1678 -2.0338 0.9808
-3.3779 -2.8100 -2.0338 0.9808
-2.8271 -3.3635 -2.0338 0.9808
-2.5171 -3.6014 -2.0338 0.9808
-1.8400 -3.9900 -2.0338 0.9808
-1.1047 -4.2527 -2.0338 0.9808
-0.3345 -4.3811 -2.0338 0.9808
0.0560 -4.3935 -2.0339 0.9808
-1.3522 -0.0964 -0.6650 0.9940
-1.2701 -0.4465 -0.6604 0.9940
-3.1875 -2.6517 -2.0338 0.9817
-2.9393 -2.9244 -2.0338 0.9817
-2.6679 -3.1740 -2.0338 0.9817
-2.3753 -3.3985 -2.0338 0.9817
-1.3949 -3.9046 -2.0338 0.9817
-0.6818 -4.0899 -2.0338 0.9817
-0.3157 -4.1343 -2.0339 0.9817
-1.2002 -0.0855 -0.6242 0.9946
-1.1650 -0.2963 -0.6236 0.9946
-1.1532 -0.5247 -0.6573 0.9943
-3.4100 -1.9342 -2.0338 0.9825
-3.0139 -2.5073 -2.0338 0.9825
-2.7792 -2.7651 -2.0338 0.9825
-2.5226 -3.0011 -2.0338 0.9825
-2.2459 -3.2134 -2.0338 0.9825
-1.9516 -3.4002 -2.0338 0.9825
-0.9857 -3.7946 -2.0338 0.9825
-0.2985 -3.9091 -2.0339 0.9825
0.0500 -3.9202 -2.0339 0.9825
-1.0257 -0.3606 -0.5955 0.9951
-0.9961 -0.4532 -0.5994 0.9950
-3.2300 -1.8321 -2.0339 0.9832
-3.0544 -2.1118 -2.0339 0.9832
-2.8547 -2.3749 -2.0338 0.9832
-2.6324 -2.6191 -2.0338 0.9832
-2.3893 -2.8426 -2.0338 0.9832
-1.8485 -3.2207 -2.0338 0.9832
-1.5550 -3.3722 -2.0338 0.9832
-0.9336 -3.5942 -2.0339 0.9832
-0.6106 -3.6629 -2.0339 0.9832
0.0474 -3.7131 -2.0339 0.9832
-0.9895 -0.0705 -0.5728 0.9954
-0.9813 -0.1585 -0.5739 0.9954
-0.9624 -0.2448 -0.5733 0.9954
-2.8976 -2.0034 -2.0339 0.9839
-2.4973 -2.4846 -2.0339 0.9839
-2.2666 -2.6967 -2.0339 0.9839
-1.7536 -3.0553 -2.0339 0.9839
-1.4752 -3.1990 -2.0339 0.9839
-0.8857 -3.4096 -2.0339 0.9839
-0.5792 -3.4748 -2.0339 0.9839
-0.2682 -3.5125 -2.0339 0.9839
