ply
format ascii 1.0
element vertex 192
property float32 x
property float32 y
property float32 z
property float32 I
end_header
-11.8883 -8.0882 -0.7292 0.9440
-11.7679 -8.0064 -1.0436 0.9445
-16.8072 3.2654 -2.0338 0.9334
-17.0285 1.7807 -2.0338 0.9334
-17.1188 0.2824 -2.0338 0.9334
-17.0776 -1.2181 -2.0337 0.9334
-15.6186 -7.0126 -2.0337 0.9334
-11.4786 -7.8095 -1.6491 0.9456
-13.2571 -10.8332 -2.0337 0.9334
-12.2572 -11.9527 -2.0337 0.9334
-11.1632 -12.9804 -2.0337 0.9334
-6.0226 -16.0262 -2.0337 0.9334
-3.1336 -16.8314 -2.0337 0.9334
-14.0905 2.7376 -2.0338 0.9437
-14.3518 0.2367 -2.0338 0.9437
-14.3173 -1.0213 -2.0338 0.9437
-14.1728 -2.2714 -2.0338 0.9437
-13.0941 -5.8791 -2.0337 0.9437
-11.8672 -8.0739 -2.0337 0.9437
-10.2762 -10.0208 -2.0337 0.9437
-6.2066 -12.9420 -2.0337 0.9437
-5.0491 -13.4359 -2.0337 0.9437
-3.8529 -13.8266 -2.0337 0.9437
-12.1191 2.3546 -2.0338 0.9512
-12.3439 0.2036 -2.0338 0.9512
-12.3142 -0.8784 -2.0338 0.9512
-11.9718 -3.0137 -2.0338 0.9512
-11.6618 -4.0508 -2.0338 0.9512
-11.2621 -5.0566 -2.0337 0.9512
-10.2069 -6.9443 -2.0337 0.9512
-8.8384 -8.6188 -2.0337 0.9512
-8.0496 -9.3599 -2.0337 0.9512
-7.1988 -10.0289 -2.0337 0.9512
-6.2927 -10.6210 -2.0337 0.9512
-3.3138 -11.8921 -2.0337 0.9512
-2.2595 -12.1367 -2.0337 0.9512
-10.7618 1.1254 -2.0338 0.9569
-10.7929 -0.7699 -2.0338 0.9569
-10.4929 -2.6414 -2.0338 0.9569
-10.2211 -3.5504 -2.0338 0.9569
-8.3785 -6.8466 -2.0338 0.9569
-6.3095 -8.7900 -2.0337 0.9569
-5.5153 -9.3089 -2.0337 0.9569
-4.6788 -9.7562 -2.0338 0.9569
-3.8063 -10.1286 -2.0338 0.9569
-9.5972 -0.6846 -2.0338 0.9614
-9.3304 -2.3488 -2.0338 0.9614
-9.0888 -3.1570 -2.0338 0.9614
-8.7773 -3.9409 -2.0338 0.9614
-7.9549 -5.4121 -2.0338 0.9614
-7.4502 -6.0881 -2.0338 0.9614
-6.8884 -6.7172 -2.0338 0.9614
-5.6105 -7.8162 -2.0338 0.9614
-4.1604 -8.6754 -2.0338 0.9614
-2.5827 -9.2683 -2.0338 0.9614
-1.7610 -9.4589 -2.0338 0.9614
-8.6068 0.9000 -2.0338 0.9651
-8.6525 0.1427 -2.0338 0.9651
-8.3918 -2.1125 -2.0338 0.9651
-8.1745 -2.8394 -2.0338 0.9651
-7.8944 -3.5445 -2.0338 0.9651
-6.7009 -5.4757 -2.0338 0.9651
-6.1955 -6.0416 -2.0338 0.9651
-5.6425 -6.5610 -2.0338 0.9651
-5.0461 -7.0300 -2.0338 0.9651
-3.7419 -7.8027 -2.0338 0.9651
-2.3229 -8.3360 -2.0338 0.9651
-7.8125 0.8170 -2.0338 0.9681
-7.8352 -0.5589 -2.0338 0.9681
-7.4201 -2.5774 -2.0338 0.9681
-6.8565 -3.8327 -2.0338 0.9681
-6.4945 -4.4185 -2.0338 0.9681
-6.0825 -4.9704 -2.0338 0.9681
-5.6237 -5.4840 -2.0338 0.9681
-4.5804 -6.3812 -2.0338 0.9681
-4.0039 -6.7579 -2.0338 0.9681
-2.7632 -7.3529 -2.0338 0.9681
-2.1086 -7.5667 -2.0338 0.9681
-7.0525 1.3702 -2.0339 0.9706
-7.1833 0.1185 -2.0338 0.9706
-7.1661 -0.5112 -2.0338 0.9706
-6.9669 -1.7538 -2.0338 0.9706
-6.7865 -2.3573 -2.0338 0.9706
-6.2711 -3.5054 -2.0338 0.9706
-5.9398 -4.0412 -2.0338 0.9706
-5.1435 -5.0157 -2.0338 0.9706
-3.1066 -6.4778 -2.0338 0.9706
-1.9285 -6.9206 -2.0338 0.9706
-1.3149 -7.0629 -2.0338 0.9706
-6.4911 1.2611 -2.0339 0.9727
-6.5957 -0.4705 -2.0338 0.9727
-6.5291 -1.0464 -2.0338 0.9727
-6.0322 -2.7084 -2.0338 0.9727
-5.7718 -3.2264 -2.0338 0.9727
-4.3115 -5.0134 -2.0338 0.9727
-3.8559 -5.3717 -2.0338 0.9727
-3.3705 -5.6888 -2.0338 0.9727
-1.7750 -6.3697 -2.0338 0.9727
-6.0063 1.1669 -2.0339 0.9745
-6.0854 0.6363 -2.0339 0.9745
-6.1177 0.1009 -2.0338 0.9745
-5.3407 -2.9854 -2.0338 0.9745
-3.5678 -4.9705 -2.0338 0.9745
-3.1188 -5.2639 -2.0338 0.9745
-1.1198 -6.0152 -2.0338 0.9745
-5.6730 -0.4047 -2.0338 0.9761
-5.6157 -0.9000 -2.0338 0.9761
-5.5152 -1.3884 -2.0338 0.9761
-5.1883 -2.3295 -2.0338 0.9761
-4.9643 -2.7750 -2.0338 0.9761
-4.4039 -3.5987 -2.0338 0.9761
-3.7084 -4.3120 -2.0338 0.9761
-2.4593 -5.1281 -2.0338 0.9761
-2.0007 -5.3238 -2.0338 0.9761
-1.0409 -5.5913 -2.0338 0.9761
-5.3066 0.0875 -2.0339 0.9775
-5.2938 -0.3776 -2.0339 0.9775
-5.1467 -1.2956 -2.0338 0.9775
-5.0134 -1.7414 -2.0338 0.9775
-4.3880 -2.9854 -2.0338 0.9775
-4.1096 -3.3583 -2.0338 0.9775
-3.0948 -4.3115 -2.0338 0.9775
-2.7053 -4.5660 -2.0338 0.9775
-2.2949 -4.7854 -2.0338 0.9775
-2.1214 0.4121 -0.8845 0.9907
-2.1132 0.2210 -0.8696 0.9909
-4.6942 -1.6306 -2.0338 0.9788
-4.3377 -2.4247 -2.0338 0.9788
-4.1086 -2.7953 -2.0338 0.9788
-3.8480 -3.1445 -2.0338 0.9788
-3.5578 -3.4694 -2.0338 0.9788
-2.8978 -4.0370 -2.0338 0.9788
-0.9095 -4.8854 -2.0338 0.9788
-1.9049 0.3701 -0.8457 0.9916
-1.9097 0.1997 -0.8368 0.9917
-1.9191 -0.4831 -0.8624 0.9914
-3.8584 -2.6251 -2.0338 0.9798
-3.3411 -3.2581 -2.0338 0.9798
-0.8541 -4.5879 -2.0338 0.9798
-1.5755 0.0260 -0.7294 0.9931
-1.6106 -0.2581 -0.7550 0.9928
-3.8353 -2.1439 -2.0338 0.9808
-3.6328 -2.4716 -2.0338 0.9808
-3.4023 -2.7803 -2.0338 0.9808
-2.8650 -3.3313 -2.0338 0.9808
-2.5621 -3.5695 -2.0338 0.9808
-2.2397 -3.7802 -2.0338 0.9808
-1.9000 -3.9618 -2.0338 0.9808
-1.1795 -4.2326 -2.0338 0.9808
-1.3358 0.2595 -0.6675 0.9940
-1.3534 0.1415 -0.6675 0.9940
-1.3409 0.0221 -0.6578 0.9940
-1.3522 -0.0965 -0.6650 0.9940
-1.3457 -0.2157 -0.6685 0.9939
-1.3163 -0.3314 -0.6658 0.9940
-1.2724 -0.4420 -0.6607 0.9940
-3.6192 -2.0231 -2.0338 0.9817
-3.4281 -2.3323 -2.0338 0.9817
-3.2106 -2.6236 -2.0338 0.9817
-2.4178 -3.3684 -2.0338 0.9817
-2.1135 -3.5672 -2.0338 0.9817
-1.7929 -3.7386 -2.0338 0.9817
-1.4586 -3.8813 -2.0338 0.9817
-1.1130 -3.9941 -2.0338 0.9817
-0.7589 -4.0763 -2.0338 0.9817
-1.1822 0.2297 -0.6248 0.9946
-1.1947 0.0197 -0.6199 0.9946
-1.1041 -0.4958 -0.6279 0.9946
-3.2414 -2.2053 -2.0338 0.9825
-3.0357 -2.4807 -2.0338 0.9825
-1.9984 -3.3729 -2.0338 0.9825
-1.3791 -3.6699 -2.0338 0.9825
-1.0524 -3.7766 -2.0338 0.9825
-0.7176 -3.8543 -2.0339 0.9825
-1.0616 0.2062 -0.5923 0.9951
-1.0781 0.0178 -0.5906 0.9951
-1.0699 -0.1715 -0.5935 0.9951
-1.0442 -0.2629 -0.5898 0.9951
-3.2414 -1.8119 -2.0339 0.9832
-3.0702 -2.0888 -2.0339 0.9832
-2.6586 -2.5925 -2.0338 0.9832
-1.8928 -3.1948 -2.0338 0.9832
-0.9896 0.0163 -0.5714 0.9954
-0.9895 -0.0706 -0.5728 0.9954
-0.8960 -0.5009 -0.5926 0.9953
-2.7278 -2.2291 -2.0339 0.9839
-2.5221 -2.4594 -2.0339 0.9839
-2.2970 -2.6709 -2.0339 0.9839
-2.0541 -2.8618 -2.0339 0.9839
-1.5233 -3.1764 -2.0339 0.9839
-0.9456 -3.3935 -2.0339 0.9839
-0.6448 -3.4632 -2.0339 0.9839
