ply
format ascii 1.0
element vertex 257
property float32 x
property float32 y
property float32 z
property float32 I
end_header
-12.7034 12.9819 3.2027 0.9289
-12.0464 12.3105 1.4581 0.9332
-12.0438 12.3079 1.0678 0.9333
-11.6018 -8.5372 -1.0562 0.9439
-16.1613 5.8841 -1.6512 0.9332
-12.8201 -7.7717 -1.4393 0.9415
-11.9755 12.2381 -2.0339 0.9334
-13.0204 11.1198 -2.0339 0.9334
-16.5472 4.3977 -2.0338 0.9334
-16.8736 2.9024 -2.0338 0.9334
-17.1205 -0.1453 -2.0338 0.9334
-15.9859 -6.1295 -2.0337 0.9334
-15.3746 -7.5324 -2.0337 0.9334
-13.0523 -7.9124 -1.8131 0.9404
-12.8282 -11.3378 -2.0337 0.9334
-6.6659 -15.7695 -2.0337 0.9334
-5.2311 -16.3018 -2.0337 0.9334
-10.9157 9.3223 -2.0339 0.9437
-11.7045 8.3103 -2.0339 0.9437
-12.3996 7.2319 -2.0339 0.9437
-12.9958 6.0957 -2.0339 0.9437
-13.8726 3.6868 -2.0338 0.9437
-14.3069 1.1604 -2.0338 0.9437
-14.3532 -0.1218 -2.0338 0.9437
-14.1025 -2.6729 -2.0337 0.9437
-13.4020 -5.1388 -2.0337 0.9437
-12.8896 -6.3150 -2.0337 0.9437
-11.4470 -8.4234 -2.0137 0.9442
-10.7548 -9.5053 -2.0337 0.9437
-9.8630 -10.4277 -2.0337 0.9437
-7.8509 -12.0157 -2.0337 0.9437
-5.5884 -13.2207 -2.0337 0.9437
-11.1775 5.2428 -2.0339 0.9512
-11.9316 3.1710 -2.0338 0.9512
-12.1670 2.0928 -2.0338 0.9512
-12.3052 0.9980 -2.0338 0.9512
-12.3451 -0.1048 -2.0338 0.9512
-12.2864 -1.2067 -2.0338 0.9512
-12.1295 -2.2990 -2.0338 0.9512
-11.8757 -3.3729 -2.0338 0.9512
-11.5270 -4.4198 -2.0338 0.9512
-11.0862 -5.4314 -2.0337 0.9512
-10.5569 -6.3997 -2.0337 0.9512
-9.2502 -8.1754 -2.0337 0.9512
-8.4831 -8.9688 -2.0337 0.9512
-7.6484 -9.6904 -2.0337 0.9512
-6.7525 -10.3346 -2.0337 0.9512
-5.8027 -10.8964 -2.0337 0.9512
-3.7720 -11.7548 -2.0337 0.9512
-7.5682 7.7341 -2.0339 0.9569
-8.8231 6.2645 -2.0339 0.9569
-9.3472 5.4515 -2.0339 0.9569
-9.7965 4.5951 -2.0339 0.9569
-10.1677 3.7019 -2.0339 0.9569
-10.6639 1.8343 -2.0338 0.9569
-10.7850 0.8747 -2.0338 0.9569
-10.7685 -1.0577 -2.0338 0.9569
-10.1030 -3.8738 -2.0338 0.9569
-8.1074 -7.1654 -2.0338 0.9569
-6.7035 -8.4933 -2.0337 0.9569
-5.9184 -9.0580 -2.0337 0.9569
-4.2128 -9.9663 -2.0338 0.9569
-8.3116 4.8476 -2.0339 0.9614
-8.7112 4.0860 -2.0339 0.9614
-9.0412 3.2918 -2.0339 0.9614
-9.2990 2.4713 -2.0338 0.9614
-9.4824 1.6311 -2.0338 0.9614
-8.9837 -3.4446 -2.0338 0.9614
-6.6115 -6.9899 -2.0338 0.9614
-5.2627 -8.0545 -2.0338 0.9614
-3.7461 -8.8622 -2.0338 0.9614
-7.0563 5.0100 -2.0339 0.9651
-7.4755 4.3599 -2.0339 0.9651
-7.8349 3.6749 -2.0339 0.9651
-8.3635 2.2227 -2.0339 0.9651
-8.5286 1.4670 -2.0338 0.9651
-8.6534 -0.0735 -2.0338 0.9651
-8.6122 -0.8459 -2.0338 0.9651
-8.3243 -2.3643 -2.0338 0.9651
-7.7711 -3.8073 -2.0338 0.9651
-7.4000 -4.4860 -2.0338 0.9651
-6.9699 -5.1288 -2.0338 0.9651
-6.4841 -5.7307 -2.0338 0.9651
-5.9464 -6.2868 -2.0338 0.9651
-4.0675 -7.6380 -2.0338 0.9651
-2.6440 -8.2397 -2.0338 0.9651
-5.4941 5.6146 -2.0339 0.9681
-6.7856 3.9575 -2.0339 0.9681
-7.1118 3.3358 -2.0339 0.9681
-7.7415 1.3316 -2.0338 0.9681
-7.8548 -0.0667 -2.0338 0.9681
-7.8175 -0.7678 -2.0338 0.9681
-7.3343 -2.8123 -2.0338 0.9681
-6.3267 -4.6555 -2.0338 0.9681
-5.8857 -5.2019 -2.0338 0.9681
-5.3977 -5.7066 -2.0338 0.9681
-4.8665 -6.1658 -2.0338 0.9681
-5.4634 4.6658 -2.0339 0.9706
-6.2061 3.6196 -2.0339 0.9706
-6.5045 3.0509 -2.0339 0.9706
-6.7509 2.4579 -2.0339 0.9706
-6.9434 1.8453 -2.0339 0.9706
-7.0804 1.2179 -2.0339 0.9706
-7.1499 -0.7022 -2.0338 0.9706
-6.9109 -1.9628 -2.0338 0.9706
-6.7080 -2.5721 -2.0338 0.9706
-6.4516 -3.1608 -2.0338 0.9706
-4.9368 -5.2193 -2.0338 0.9706
-3.3769 -6.3411 -2.0338 0.9706
-5.9867 2.8080 -2.0339 0.9727
-6.6122 -0.0561 -2.0338 0.9727
-6.3608 -1.8066 -2.0338 0.9727
-6.1740 -2.3674 -2.0338 0.9727
-5.9380 -2.9092 -2.0338 0.9727
-5.6545 -3.4278 -2.0338 0.9727
-5.3258 -3.9190 -2.0338 0.9727
-4.9546 -4.3790 -2.0338 0.9727
-4.0966 -5.1904 -2.0338 0.9727
-3.6168 -5.5355 -2.0338 0.9727
-3.1080 -5.8363 -2.0338 0.9727
-2.5745 -6.0905 -2.0338 0.9727
-2.0204 -6.2962 -2.0338 0.9727
-4.9891 3.5423 -2.0339 0.9745
-5.5396 2.5983 -2.0339 0.9745
-5.9134 1.5715 -2.0339 0.9745
-6.0300 1.0372 -2.0339 0.9745
-6.1183 -0.0519 -2.0338 0.9745
-6.0115 -1.1394 -2.0338 0.9745
-5.8857 -1.6717 -2.0338 0.9745
-5.4945 -2.6919 -2.0338 0.9745
-4.5845 -4.0519 -2.0338 0.9745
-3.7907 -4.8028 -2.0338 0.9745
-3.3467 -5.1221 -2.0338 0.9745
-2.8759 -5.4004 -2.0338 0.9745
-1.8695 -5.8259 -2.0338 0.9745
-4.3249 3.6936 -2.0339 0.9761
-5.3443 1.9458 -2.0339 0.9761
-5.4966 1.4608 -2.0339 0.9761
-5.6688 0.4597 -2.0339 0.9761
-5.5879 -1.0591 -2.0338 0.9761
-5.4709 -1.5538 -2.0338 0.9761
-5.3104 -2.0362 -2.0338 0.9761
-5.1073 -2.5022 -2.0338 0.9761
-4.8635 -2.9483 -2.0338 0.9761
-4.2615 -3.7663 -2.0338 0.9761
-3.9081 -4.1318 -2.0338 0.9761
-3.5236 -4.4643 -2.0338 0.9761
-2.6733 -5.0199 -2.0338 0.9761
-2.2144 -5.2386 -2.0338 0.9761
-1.7377 -5.4154 -2.0338 0.9761
-3.7120 3.7934 -2.0339 0.9775
-4.3275 3.0726 -2.0339 0.9775
-4.8050 2.2538 -2.0339 0.9775
-5.1293 1.3631 -2.0339 0.9775
-5.2899 0.4290 -2.0339 0.9775
-5.3071 -0.0450 -2.0339 0.9775
-5.2818 -0.5188 -2.0338 0.9775
-4.2746 -3.1455 -2.0338 0.9775
-3.2881 -4.1660 -2.0338 0.9775
-2.9030 -4.4429 -2.0338 0.9775
-2.4946 -4.6844 -2.0338 0.9775
-2.0664 -4.8885 -2.0338 0.9775
-4.0520 2.8770 -2.0339 0.9788
-4.2927 2.5037 -2.0339 0.9788
-4.4991 2.1103 -2.0339 0.9788
-4.6696 1.7001 -2.0339 0.9788
-4.8027 1.2764 -2.0339 0.9788
-2.1185 0.1718 -0.8699 0.9909
-2.1148 -0.2078 -0.8697 0.9909
-2.1208 -0.4020 -0.8835 0.9907
-4.6400 -1.7791 -2.0338 0.9788
-4.0025 -2.9453 -2.0338 0.9788
-3.7236 -3.2909 -2.0338 0.9788
-3.4148 -3.6103 -2.0338 0.9788
-2.7182 -4.1601 -2.0338 0.9788
-2.3358 -4.3862 -2.0338 0.9788
-1.5184 -4.7317 -2.0338 0.9788
-4.0313 2.3512 -2.0339 0.9798
-4.2251 1.9818 -2.0339 0.9798
-1.9582 0.5204 -0.8831 0.9912
-1.9143 0.1552 -0.8370 0.9917
-1.9051 -0.3611 -0.8450 0.9916
-2.0106 -0.5711 -0.9109 0.9909
-4.3574 -1.6708 -2.0338 0.9798
-3.4968 -3.0905 -2.0338 0.9798
-3.2068 -3.3904 -2.0338 0.9798
-2.8912 -3.6632 -2.0338 0.9798
-2.5526 -3.9067 -2.0338 0.9798
-1.8170 -4.2985 -2.0338 0.9798
-1.4259 -4.4436 -2.0338 0.9798
-3.0731 3.1405 -2.0339 0.9808
-3.3413 2.8536 -2.0339 0.9808
-3.5827 2.5438 -2.0339 0.9808
-3.9780 1.8659 -2.0339 0.9808
-1.8204 0.6628 -0.8967 0.9915
-1.5646 0.4158 -0.7494 0.9929
-1.6028 0.1300 -0.7443 0.9929
-1.6046 -0.3042 -0.7560 0.9928
-1.5510 -0.4405 -0.7463 0.9929
-4.1026 -1.5731 -2.0338 0.9808
-3.7573 -2.2778 -2.0338 0.9808
-3.5389 -2.6042 -2.0338 0.9808
-3.2922 -2.9098 -2.0338 0.9808
-3.0193 -3.1921 -2.0338 0.9808
-2.7222 -3.4490 -2.0338 0.9808
-1.7108 -4.0471 -2.0338 0.9808
-2.9000 2.9636 -2.0339 0.9817
-3.1530 2.6928 -2.0339 0.9817
-3.5817 2.0890 -2.0339 0.9817
-1.2630 0.4598 -0.6593 0.9940
-1.3104 0.3482 -0.6651 0.9940
-1.3427 0.2309 -0.6683 0.9939
-1.3535 -0.1330 -0.6671 0.9940
-1.3372 -0.2535 -0.6676 0.9940
-2.8492 -3.0123 -2.0338 0.9817
-2.5688 -3.2547 -2.0338 0.9817
-2.2679 -3.4711 -2.0338 0.9817
-1.6144 -3.8191 -2.0338 0.9817
-1.2669 -3.9480 -2.0338 0.9817
-2.9813 2.5461 -2.0339 0.9825
-3.1967 2.2697 -2.0339 0.9825
-3.3866 1.9752 -2.0339 0.9825
-3.5494 1.6649 -2.0339 0.9825
-1.1315 0.4119 -0.6247 0.9946
-1.2003 -0.1179 -0.6257 0.9946
-1.1837 -0.2244 -0.6250 0.9946
-1.1550 -0.3281 -0.6229 0.9946
-1.1261 -0.4318 -0.6257 0.9946
-2.1445 -3.2820 -2.0338 0.9825
-1.8428 -3.4604 -2.0338 0.9825
-1.5264 -3.6111 -2.0338 0.9825
-2.5972 2.6542 -2.0339 0.9832
-2.8239 2.4116 -2.0339 0.9832
-3.0279 2.1498 -2.0339 0.9832
-0.9920 0.4653 -0.6001 0.9950
-1.0673 0.1836 -0.5931 0.9951
-1.0806 0.0876 -0.5938 0.9951
-0.9856 -0.4829 -0.6011 0.9950
-3.1755 -1.9250 -2.0339 0.9832
-2.9909 -2.2009 -2.0339 0.9832
-2.7824 -2.4592 -2.0338 0.9832
-2.5517 -2.6978 -2.0338 0.9832
-1.1346 -3.5359 -2.0339 0.9832
-2.8724 2.0395 -2.0339 0.9839
-1.2353 0.7204 -0.8257 0.9934
-0.9205 0.4317 -0.5870 0.9953
-0.9600 0.2551 -0.5735 0.9954
-0.9798 0.1685 -0.5740 0.9954
-0.9891 0.0802 -0.5730 0.9954
-0.9893 -0.0084 -0.5712 0.9954
-0.9881 -0.0971 -0.5732 0.9954
-0.9768 -0.1852 -0.5740 0.9954
-0.9581 -0.2722 -0.5751 0.9954
-0.9152 -0.4484 -0.5884 0.9953
-2.8373 -2.0879 -2.0339 0.9839
-2.4207 -2.5593 -2.0339 0.9839
-2.1825 -2.7652 -2.0339 0.9839
