ply
format ascii 1.0
element vertex 185
property float32 x
property float32 y
property float32 z
property float32 I
end_header
-12.0283 -8.0010 -0.7326 0.9438
-11.9160 -7.9263 -1.0493 0.9442
-11.6921 -7.7773 -1.3482 0.9451
-17.0935 0.9743 -2.0338 0.9334
-16.9830 -2.1692 -2.0337 0.9334
-16.2993 -5.2393 -2.0337 0.9334
-15.7491 -6.7143 -2.0337 0.9334
-11.6171 -7.7274 -1.6574 0.9453
-13.3236 -10.7514 -2.0337 0.9334
-12.2796 -11.9297 -2.0337 0.9334
-9.8900 -13.9748 -2.0337 0.9334
-8.5645 -14.8242 -2.0337 0.9334
-5.7082 -16.1409 -2.0337 0.9334
-4.2014 -16.5971 -2.0337 0.9334
-2.6590 -16.9129 -2.0337 0.9334
-14.3449 -0.5030 -2.0338 0.9437
-13.2035 -5.6291 -2.0337 0.9437
-12.6306 -6.8181 -2.0337 0.9437
-10.2949 -10.0015 -2.0337 0.9437
-9.3327 -10.9049 -2.0337 0.9437
-6.0083 -13.0352 -2.0337 0.9437
-2.2293 -14.1793 -2.0337 0.9437
-12.3255 0.7025 -2.0338 0.9512
-12.0504 -2.6824 -2.0338 0.9512
-11.7530 -3.7779 -2.0338 0.9512
-10.2789 -6.8373 -2.0337 0.9512
-8.8546 -8.6023 -2.0337 0.9512
-7.1315 -10.0769 -2.0337 0.9512
-6.1756 -10.6894 -2.0337 0.9512
-3.0295 -11.9677 -2.0337 0.9512
-1.9173 -12.1955 -2.0337 0.9512
-10.8029 0.6157 -2.0338 0.9569
-10.8137 -0.3792 -2.0338 0.9569
-10.3011 -3.3112 -2.0338 0.9569
-9.5215 -5.1398 -2.0338 0.9569
-9.0091 -5.9926 -2.0338 0.9569
-7.7607 -7.5396 -2.0337 0.9569
-7.0353 -8.2206 -2.0337 0.9569
-6.2505 -8.8321 -2.0337 0.9569
-5.4128 -9.3689 -2.0337 0.9569
-2.6552 -10.4893 -2.0338 0.9569
-1.6805 -10.6889 -2.0338 0.9569
-9.6061 0.5475 -2.0338 0.9614
-8.8507 -3.7733 -2.0338 0.9614
-8.4667 -4.5704 -2.0338 0.9614
-8.0110 -5.3288 -2.0338 0.9614
-6.9009 -6.7043 -2.0338 0.9614
-5.5580 -7.8536 -2.0338 0.9614
-4.0275 -8.7379 -2.0338 0.9614
-2.3611 -9.3272 -2.0338 0.9614
-1.4943 -9.5047 -2.0338 0.9614
-8.6397 0.4924 -2.0338 0.9651
-8.4469 -1.8803 -2.0338 0.9651
-8.2384 -2.6482 -2.0338 0.9651
-7.9604 -3.3938 -2.0338 0.9651
-7.2052 -4.7927 -2.0338 0.9651
-6.2068 -6.0299 -2.0338 0.9651
-5.6266 -6.5746 -2.0338 0.9651
-4.9990 -7.0636 -2.0338 0.9651
-1.3440 -8.5486 -2.0338 0.9651
-7.8424 0.4470 -2.0338 0.9681
-7.7918 -0.9953 -2.0338 0.9681
-7.4782 -2.4038 -2.0338 0.9681
-7.2257 -3.0806 -2.0338 0.9681
-6.9122 -3.7313 -2.0338 0.9681
-6.1130 -4.9328 -2.0338 0.9681
-5.1074 -5.9678 -2.0338 0.9681
-3.9295 -6.8015 -2.0338 0.9681
-3.2881 -7.1337 -2.0338 0.9681
-2.6189 -7.4055 -2.0338 0.9681
-1.2200 -7.7597 -2.0338 0.9681
-7.1727 0.4088 -2.0338 0.9706
-7.1264 -0.9103 -2.0338 0.9706
-7.0126 -1.5610 -2.0338 0.9706
-6.8396 -2.1986 -2.0338 0.9706
-6.6087 -2.8175 -2.0338 0.9706
-6.3219 -3.4127 -2.0338 0.9706
-5.1529 -5.0061 -2.0338 0.9706
-4.6713 -5.4582 -2.0338 0.9706
-4.1501 -5.8642 -2.0338 0.9706
-3.0073 -6.5245 -2.0338 0.9706
-1.7630 -6.9646 -2.0338 0.9706
-1.1158 -7.0971 -2.0338 0.9706
-6.5591 -0.8378 -2.0338 0.9727
-6.4544 -1.4367 -2.0338 0.9727
-6.0826 -2.5932 -2.0338 0.9727
-5.5056 -3.6622 -2.0338 0.9727
-3.3079 -5.7255 -2.0338 0.9727
-2.7680 -6.0051 -2.0338 0.9727
-1.6227 -6.4102 -2.0338 0.9727
-6.1086 0.3482 -2.0339 0.9745
-6.1148 -0.2144 -2.0338 0.9745
-6.0692 -0.7752 -2.0338 0.9745
-5.9723 -1.3294 -2.0338 0.9745
-5.8250 -1.8724 -2.0338 0.9745
-5.6284 -2.3996 -2.0338 0.9745
-5.3841 -2.9064 -2.0338 0.9745
-4.7616 -3.8423 -2.0338 0.9745
-3.9783 -4.6485 -2.0338 0.9745
-3.0608 -5.2979 -2.0338 0.9745
-2.5612 -5.5566 -2.0338 0.9745
-2.0400 -5.7684 -2.0338 0.9745
-1.5015 -5.9314 -2.0338 0.9745
-5.6782 0.3236 -2.0339 0.9761
-5.6839 -0.1994 -2.0338 0.9761
-5.5515 -1.2358 -2.0338 0.9761
-5.4145 -1.7404 -2.0338 0.9761
-5.0046 -2.7016 -2.0338 0.9761
-4.7354 -3.1499 -2.0338 0.9761
-4.0792 -3.9630 -2.0338 0.9761
-3.6980 -4.3209 -2.0338 0.9761
-3.2854 -4.6424 -2.0338 0.9761
-2.8451 -4.9245 -2.0338 0.9761
-1.3957 -5.5134 -2.0338 0.9761
-4.6702 -2.5211 -2.0338 0.9775
-4.4189 -2.9394 -2.0338 0.9775
-3.4508 -4.0322 -2.0338 0.9775
-3.0659 -4.3321 -2.0338 0.9775
-1.7695 -5.0036 -2.0338 0.9775
-2.1227 -0.0745 -0.8693 0.9909
-2.1068 -0.2691 -0.8693 0.9909
-4.5712 -1.9489 -2.0338 0.9788
-3.8673 -3.1207 -2.0338 0.9788
-2.8707 -4.0563 -2.0338 0.9788
-1.6569 -4.6850 -2.0338 0.9788
-0.7718 -4.9091 -2.0338 0.9788
-1.9187 -0.0673 -0.8367 0.9917
-1.9035 -0.2432 -0.8363 0.9917
-1.9024 -0.4235 -0.8494 0.9915
-4.4429 -1.4281 -2.0338 0.9798
-4.2929 -1.8302 -2.0338 0.9798
-4.1066 -2.2168 -2.0338 0.9798
-3.8856 -2.5846 -2.0338 0.9798
-3.6318 -2.9306 -2.0338 0.9798
-3.0344 -3.5455 -2.0338 0.9798
-0.7248 -4.6101 -2.0338 0.9798
-1.5953 0.0909 -0.7396 0.9930
-1.5855 -0.0556 -0.7344 0.9930
-1.6102 -0.2057 -0.7514 0.9929
-4.0418 -1.7232 -2.0338 0.9808
-3.4194 -2.7593 -2.0338 0.9808
-3.1515 -3.0617 -2.0338 0.9808
-2.5382 -3.5865 -2.0338 0.9808
-1.8393 -3.9904 -2.0338 0.9808
-1.4650 -4.1425 -2.0338 0.9808
-1.0782 -4.2595 -2.0338 0.9808
-0.6824 -4.3405 -2.0338 0.9808
-1.3460 -0.0472 -0.6607 0.9940
-1.2859 -0.4134 -0.6626 0.9940
-3.8141 -1.6261 -2.0338 0.9817
-3.6486 -1.9696 -2.0338 0.9817
-3.2267 -2.6038 -2.0338 0.9817
-2.3952 -3.3845 -2.0338 0.9817
-2.0742 -3.5902 -2.0338 0.9817
-0.6440 -4.0960 -2.0338 0.9817
-1.1973 -0.0420 -0.6215 0.9946
-1.1985 -0.1531 -0.6268 0.9946
-1.1737 -0.2613 -0.6238 0.9946
-1.1412 -0.3669 -0.6219 0.9946
-3.4499 -1.8623 -2.0338 0.9825
-3.2643 -2.1713 -2.0338 0.9825
-3.0510 -2.4620 -2.0338 0.9825
-2.5491 -2.9786 -2.0338 0.9825
-2.2648 -3.2002 -2.0338 0.9825
-1.9612 -3.3946 -2.0338 0.9825
-1.3071 -3.6962 -2.0338 0.9825
-1.0758 -0.1374 -0.5940 0.9951
-1.0531 -0.2345 -0.5909 0.9951
-3.2677 -1.7640 -2.0339 0.9832
-2.8898 -2.3320 -2.0338 0.9832
-2.4145 -2.8213 -2.0338 0.9832
-1.5545 -3.3724 -2.0338 0.9832
-0.5768 -3.6684 -2.0339 0.9832
-0.9899 0.0564 -0.5725 0.9954
-0.9855 -0.1259 -0.5736 0.9954
-0.9704 -0.2161 -0.5740 0.9954
-0.9532 -0.3064 -0.5780 0.9954
-0.9319 -0.3973 -0.5849 0.9953
-0.9016 -0.4867 -0.5916 0.9953
-2.7415 -2.2122 -2.0339 0.9839
-2.2905 -2.6764 -2.0339 0.9839
-1.7623 -3.0503 -2.0339 0.9839
-1.4746 -3.1993 -2.0339 0.9839
-0.8645 -3.4150 -2.0339 0.9839
-0.5471 -3.4800 -2.0339 0.9839
