ply
format ascii 1.0
element vertex 204
property float32 x
property float32 y
property float32 z
property float32 I
end_header
16.3930 -3.9332 -0.8550 0.9347
14.7728 9.1381 -0.8809 0.9328
13.9886 8.6530 -1.5791 0.9360
16.9368 -2.5210 -2.0340 0.9333
17.0927 -1.0276 -2.0340 0.9333
16.7720 3.4540 -2.0341 0.9333
15.2964 7.6980 -2.0341 0.9333
14.5633 9.0085 -2.0341 0.9333
12.7676 11.4120 -2.0341 0.9333
11.7188 12.4866 -2.0341 0.9333
5.3071 16.2812 -2.0341 0.9333
13.9591 -3.3492 -2.0340 0.9437
14.3296 -0.8615 -2.0340 0.9437
14.3501 0.3971 -2.0340 0.9437
13.3396 5.3053 -2.0341 0.9437
12.8236 6.4535 -2.0341 0.9437
12.2090 7.5521 -2.0341 0.9437
10.7035 9.5671 -2.0341 0.9437
9.8243 10.4680 -2.0341 0.9437
6.7631 12.6632 -2.0341 0.9437
5.6278 13.2070 -2.0341 0.9437
4.4492 13.6492 -2.0341 0.9437
12.2122 -1.8178 -2.0340 0.9512
12.0932 2.4905 -2.0340 0.9512
11.0292 5.5505 -2.0341 0.9512
10.5006 6.4954 -2.0341 0.9512
9.8912 7.3903 -2.0341 0.9512
8.4496 9.0033 -2.0341 0.9512
4.8403 11.3589 -2.0341 0.9512
3.8266 11.7393 -2.0341 0.9512
10.5226 -2.5247 -2.0340 0.9569
10.7034 -1.5932 -2.0340 0.9569
10.8018 -0.6494 -2.0340 0.9569
10.8173 0.2993 -2.0340 0.9569
10.5991 2.1828 -2.0340 0.9569
10.3671 3.1029 -2.0340 0.9569
9.6665 4.8647 -2.0340 0.9569
8.6691 6.4772 -2.0340 0.9569
8.0684 7.2118 -2.0341 0.9569
6.6859 8.5093 -2.0341 0.9569
5.9147 9.0623 -2.0341 0.9569
5.0980 9.5456 -2.0341 0.9569
3.3539 10.2888 -2.0340 0.9569
9.5175 -1.4167 -2.0340 0.9614
9.6050 -0.5774 -2.0340 0.9614
9.6187 0.2662 -2.0340 0.9614
9.4247 1.9409 -2.0340 0.9614
9.2185 2.7591 -2.0340 0.9614
8.5955 4.3257 -2.0340 0.9614
8.1835 5.0621 -2.0340 0.9614
7.7086 5.7595 -2.0340 0.9614
5.2594 8.0581 -2.0340 0.9614
3.7722 8.8524 -2.0340 0.9614
2.9822 9.1488 -2.0340 0.9614
8.6388 -0.5194 -2.0340 0.9651
8.5968 0.9964 -2.0340 0.9651
8.4766 1.7456 -2.0340 0.9651
8.0418 3.1983 -2.0340 0.9651
7.3602 4.5528 -2.0340 0.9651
5.9226 6.3106 -2.0340 0.9651
5.3470 6.8052 -2.0340 0.9651
4.7303 7.2475 -2.0340 0.9651
4.0771 7.6340 -2.0340 0.9651
3.3927 7.9618 -2.0340 0.9651
2.6822 8.2284 -2.0340 0.9651
7.6388 -1.8328 -2.0339 0.9681
7.8527 0.2173 -2.0340 0.9681
7.8035 0.9044 -2.0340 0.9681
7.6943 1.5845 -2.0340 0.9681
7.0173 3.5314 -2.0340 0.9681
6.6809 4.1326 -2.0340 0.9681
6.2932 4.7020 -2.0340 0.9681
4.8535 6.1771 -2.0340 0.9681
4.2937 6.5786 -2.0340 0.9681
3.0796 7.2270 -2.0340 0.9681
6.9864 -1.6763 -2.0339 0.9706
7.1065 -1.0578 -2.0339 0.9706
7.1718 -0.4312 -2.0340 0.9706
7.1821 0.1988 -2.0340 0.9706
7.0372 1.4492 -2.0340 0.9706
6.6762 2.6552 -2.0340 0.9706
6.4180 3.2299 -2.0340 0.9706
6.1104 3.7797 -2.0340 0.9706
5.3569 4.7881 -2.0340 0.9706
2.8166 6.6098 -2.0340 0.9706
6.4303 -1.5428 -2.0339 0.9727
6.6103 0.1829 -2.0340 0.9727
6.5689 0.7613 -2.0340 0.9727
6.1447 2.4438 -2.0340 0.9727
5.2975 3.9581 -2.0340 0.9727
4.9305 4.4069 -2.0340 0.9727
3.6144 5.5378 -2.0340 0.9727
3.1154 5.8331 -2.0340 0.9727
2.5924 6.0836 -2.0340 0.9727
5.9500 -1.4276 -2.0339 0.9745
6.0522 -0.9009 -2.0339 0.9745
6.1079 -0.3672 -2.0339 0.9745
6.0782 0.7044 -2.0340 0.9745
5.9932 1.2342 -2.0340 0.9745
5.8620 1.7545 -2.0340 0.9745
5.4658 2.7507 -2.0340 0.9745
4.9018 3.6625 -2.0340 0.9745
4.5622 4.0778 -2.0340 0.9745
4.1874 4.4618 -2.0340 0.9745
3.3444 5.1241 -2.0340 0.9745
2.8827 5.3974 -2.0340 0.9745
5.5307 -1.3270 -2.0339 0.9761
5.6775 -0.3413 -2.0339 0.9761
5.6499 0.6548 -2.0340 0.9761
5.4489 1.6308 -2.0340 0.9761
5.2851 2.1019 -2.0340 0.9761
5.0807 2.5568 -2.0340 0.9761
4.8371 2.9921 -2.0340 0.9761
4.2407 3.7904 -2.0340 0.9761
3.8923 4.1473 -2.0340 0.9761
3.1087 4.7630 -2.0340 0.9761
2.2297 5.2325 -2.0340 0.9761
5.1611 -1.2383 -2.0339 0.9775
5.2497 -0.7814 -2.0339 0.9775
5.2980 -0.3185 -2.0339 0.9775
5.2723 0.6111 -2.0340 0.9775
5.0847 1.5219 -2.0340 0.9775
4.2519 3.1768 -2.0340 0.9775
3.9572 3.5371 -2.0340 0.9775
3.6321 3.8702 -2.0340 0.9775
3.2791 4.1735 -2.0340 0.9775
2.9009 4.4447 -2.0340 0.9775
2.5004 4.6817 -2.0340 0.9775
2.0807 4.8828 -2.0340 0.9775
1.6450 5.0463 -2.0340 0.9775
4.8325 -1.1595 -2.0339 0.9788
4.9678 0.1375 -2.0339 0.9787
4.9366 0.5721 -2.0339 0.9787
4.8675 1.0024 -2.0340 0.9787
4.7610 1.4249 -2.0340 0.9787
4.6179 1.8365 -2.0340 0.9787
4.2264 2.6143 -2.0340 0.9787
3.0704 3.9078 -2.0340 0.9787
2.3412 4.3837 -2.0340 0.9787
1.9482 4.5719 -2.0340 0.9787
1.5402 4.7250 -2.0340 0.9787
4.5382 -1.0888 -2.0339 0.9798
4.3366 1.7247 -2.0340 0.9798
4.1689 2.0980 -2.0340 0.9798
2.8834 3.6698 -2.0340 0.9798
2.5508 3.9082 -2.0340 0.9798
2.1987 4.1167 -2.0340 0.9798
1.8296 4.2935 -2.0340 0.9798
4.2728 -1.0252 -2.0339 0.9808
4.3461 -0.6469 -2.0339 0.9808
4.3861 -0.2637 -2.0339 0.9808
4.3924 0.1216 -2.0339 0.9808
4.3038 0.8863 -2.0339 0.9808
3.9251 1.9753 -2.0340 0.9808
3.5200 2.6300 -2.0340 0.9808
3.2761 2.9283 -2.0340 0.9808
3.0070 3.2041 -2.0340 0.9808
2.7148 3.4552 -2.0340 0.9808
2.4017 3.6797 -2.0340 0.9808
2.0700 3.8759 -2.0340 0.9808
1.7225 4.0424 -2.0340 0.9808
1.3618 4.1777 -2.0340 0.9808
4.0320 -0.9674 -2.0339 0.9817
4.1013 -0.6105 -2.0339 0.9817
4.1390 -0.2489 -2.0339 0.9817
4.0613 0.8364 -2.0339 0.9817
3.9724 1.1889 -2.0339 0.9817
3.7039 1.8640 -2.0340 0.9817
3.3218 2.4819 -2.0340 0.9817
3.0915 2.7633 -2.0340 0.9817
2.8376 3.0235 -2.0340 0.9817
1.6255 3.8146 -2.0340 0.9817
1.2851 3.9423 -2.0340 0.9817
3.8125 -0.9147 -2.0339 0.9825
2.0784 -0.1250 -1.0802 0.9907
2.0759 0.0574 -1.0773 0.9907
2.1073 0.4340 -1.1162 0.9904
3.7561 1.1242 -2.0339 0.9825
3.6431 1.4489 -2.0339 0.9825
3.5022 1.7625 -2.0340 0.9825
3.3343 2.0625 -2.0340 0.9825
2.6830 2.8588 -2.0340 0.9825
2.4223 3.0829 -2.0340 0.9825
1.5370 3.6068 -2.0340 0.9825
1.2151 3.7276 -2.0340 0.9825
1.8575 -0.4457 -1.0463 0.9913
1.8480 -0.2751 -1.0233 0.9915
1.8525 -0.1114 -1.0165 0.9916
1.8565 0.3823 -1.0382 0.9914
1.8743 0.5610 -1.0716 0.9911
3.1582 1.9536 -2.0339 0.9832
2.5413 2.7079 -2.0340 0.9832
2.2943 2.9201 -2.0340 0.9832
2.0297 3.1098 -2.0340 0.9832
1.4558 3.4164 -2.0340 0.9832
1.7138 -0.2551 -1.0004 0.9920
1.7234 -0.1036 -0.9968 0.9921
1.7146 0.3531 -1.0107 0.9919
1.7166 0.5138 -1.0345 0.9918
1.7439 0.6935 -1.0835 0.9914
2.9961 1.8532 -2.0339 0.9839
2.1765 2.7701 -2.0340 0.9839
1.6596 3.1075 -2.0339 0.9839
1.3811 3.2409 -2.0339 0.9839
