ply
format ascii 1.0
element vertex 196
property float32 x
property float32 y
property float32 z
property float32 I
end_header
16.3925 -4.2186 -1.2411 0.9344
2.7063 -6.1755 -0.6473 0.9733
16.1245 -4.1496 -1.5985 0.9353
-3.7546 -16.7038 -2.0337 0.9334
-0.6832 -17.1071 -2.0337 0.9334
0.8671 -17.0989 -2.0337 0.9334
3.9340 -16.6630 -2.0337 0.9334
5.4254 -16.2389 -2.0338 0.9334
2.6303 -6.0021 -0.7784 0.9739
8.2628 -14.9959 -2.0338 0.9334
9.5856 -14.1870 -2.0338 0.9334
10.8298 -13.2618 -2.0338 0.9334
11.9853 -12.2279 -2.0339 0.9334
13.0424 -11.0936 -2.0339 0.9334
13.9927 -9.8683 -2.0339 0.9334
15.5422 -7.1856 -2.0340 0.9334
16.1286 -5.7502 -2.0340 0.9334
16.5443 -4.2577 -2.0293 0.9335
-3.1477 -14.0040 -2.0337 0.9437
-1.8679 -14.2314 -2.0337 0.9437
2.0759 -6.2136 -0.9282 0.9739
6.9272 -12.5720 -2.0338 0.9437
13.5215 -4.8207 -2.0340 0.9437
13.9022 -3.5777 -2.0340 0.9437
-2.7073 -12.0447 -2.0337 0.9512
-1.6066 -12.2403 -2.0337 0.9512
1.7381 -12.2225 -2.0338 0.9512
1.5249 -6.4587 -1.0933 0.9735
1.9967 -5.9766 -1.0381 0.9748
2.5578 -5.8367 -1.0498 0.9745
7.8090 -9.5626 -2.0339 0.9512
8.6421 -8.8170 -2.0339 0.9512
9.4044 -7.9991 -2.0339 0.9512
10.0895 -7.1156 -2.0339 0.9512
10.6919 -6.1737 -2.0339 0.9512
11.9570 -3.0771 -2.0340 0.9512
-1.4081 -10.7282 -2.0338 0.9569
-0.4318 -10.8116 -2.0338 0.9569
0.5480 -10.8064 -2.0338 0.9569
1.4727 -6.2378 -1.2047 0.9743
1.9762 -5.9152 -1.1722 0.9749
3.2169 -5.8383 -1.2529 0.9732
6.0579 -8.9659 -2.0339 0.9569
8.2425 -7.0109 -2.0339 0.9569
8.8430 -6.2365 -2.0339 0.9569
9.3709 -5.4110 -2.0339 0.9569
9.8221 -4.5411 -2.0339 0.9569
10.4797 -2.6970 -2.0340 0.9569
-2.1100 -9.3872 -2.0338 0.9614
1.3546 -9.5257 -2.0338 0.9614
1.9683 -5.8913 -1.3130 0.9749
2.5636 -5.8498 -1.3501 0.9742
6.0859 -7.4527 -2.0339 0.9614
7.8632 -5.5455 -2.0339 0.9614
8.3327 -4.8115 -2.0339 0.9614
8.7339 -4.0379 -2.0339 0.9614
9.0634 -3.2313 -2.0339 0.9614
0.4383 -8.6426 -2.0338 0.9651
1.2184 -8.5675 -2.0338 0.9651
2.5540 -5.8279 -1.4954 0.9742
5.4737 -6.7029 -2.0339 0.9651
6.0577 -6.1803 -2.0339 0.9651
6.5920 -5.6070 -2.0339 0.9651
7.0722 -4.9877 -2.0339 0.9651
8.1517 -2.9062 -2.0339 0.9651
-1.0222 -7.7882 -2.0338 0.9681
-0.3135 -7.8488 -2.0338 0.9681
1.1059 -7.7769 -2.0338 0.9681
1.4198 -6.0139 -1.5999 0.9748
1.9442 -5.8194 -1.5886 0.9750
2.5641 -5.8511 -1.6540 0.9739
4.3977 -6.5088 -2.0339 0.9681
4.9685 -6.0844 -2.0339 0.9681
6.8028 -3.9281 -2.0339 0.9681
7.1303 -3.2966 -2.0339 0.9681
7.6077 -1.9578 -2.0339 0.9681
-1.5755 -7.0094 -2.0338 0.9706
-0.2867 -7.1786 -2.0338 0.9706
0.3639 -7.1751 -2.0338 0.9706
1.0115 -7.1128 -2.0338 0.9706
1.9782 -5.9210 -1.7673 0.9744
4.5443 -5.5647 -2.0339 0.9706
5.4727 -4.6549 -2.0339 0.9706
6.2219 -3.5926 -2.0339 0.9706
-1.4501 -6.4514 -2.0338 0.9727
-0.8605 -6.5562 -2.0338 0.9727
-0.2639 -6.6071 -2.0338 0.9727
2.0954 -6.2717 -2.0338 0.9727
2.6541 -6.0564 -2.0339 0.9727
3.7020 -5.4791 -2.0339 0.9727
4.6287 -4.7224 -2.0339 0.9727
6.0023 -2.7750 -2.0339 0.9727
6.4041 -1.6481 -2.0339 0.9727
-1.3418 -5.9696 -2.0338 0.9745
0.8614 -6.0576 -2.0338 0.9745
1.4059 -5.9549 -2.0338 0.9745
2.4559 -5.6041 -2.0339 0.9745
3.4255 -5.0699 -2.0339 0.9745
4.6608 -3.9644 -2.0339 0.9745
5.0003 -3.5265 -2.0339 0.9745
5.2988 -3.0597 -2.0339 0.9745
5.7635 -2.0548 -2.0339 0.9745
5.9258 -1.5250 -2.0339 0.9745
-0.2270 -5.6828 -2.0338 0.9761
0.2880 -5.6801 -2.0338 0.9761
0.8007 -5.6307 -2.0338 0.9761
1.3068 -5.5352 -2.0338 0.9761
2.2828 -5.2092 -2.0339 0.9761
3.1841 -4.7126 -2.0339 0.9761
4.3323 -3.6850 -2.0339 0.9761
4.6480 -3.2779 -2.0339 0.9761
5.3573 -1.9100 -2.0339 0.9761
5.5082 -1.4175 -2.0339 0.9761
-0.6907 -5.2621 -2.0338 0.9775
-0.2118 -5.3030 -2.0338 0.9775
1.2195 -5.1653 -2.0339 0.9775
1.6818 -5.0338 -2.0339 0.9775
3.3570 -4.1108 -2.0339 0.9775
4.3373 -3.0589 -2.0339 0.9775
4.5963 -2.6540 -2.0339 0.9775
4.9993 -1.7823 -2.0339 0.9775
5.1400 -1.3228 -2.0339 0.9775
-0.6467 -4.9271 -2.0338 0.9788
0.2517 -4.9630 -2.0338 0.9788
0.6996 -4.9199 -2.0339 0.9788
1.5747 -4.7133 -2.0339 0.9788
2.7821 -4.1177 -2.0339 0.9788
3.7854 -3.2198 -2.0339 0.9788
4.0612 -2.8642 -2.0339 0.9788
4.3036 -2.4850 -2.0339 0.9788
4.6810 -1.6689 -2.0339 0.9788
4.8128 -1.2386 -2.0339 0.9788
-1.0234 -4.5532 -2.0338 0.9798
-0.6073 -4.6271 -2.0338 0.9798
-0.1863 -4.6630 -2.0338 0.9798
1.0723 -4.5419 -2.0339 0.9798
1.8732 -4.2744 -2.0339 0.9798
2.2521 -4.0874 -2.0339 0.9798
2.9518 -3.6147 -2.0339 0.9798
3.5548 -3.0237 -2.0339 0.9798
3.8139 -2.6897 -2.0339 0.9798
4.0416 -2.3337 -2.0339 0.9798
4.2361 -1.9585 -2.0339 0.9798
4.3959 -1.5672 -2.0339 0.9798
4.5197 -1.1631 -2.0339 0.9798
-0.9636 -4.2869 -2.0338 0.9808
-0.5718 -4.3565 -2.0338 0.9808
0.2225 -4.3882 -2.0339 0.9808
2.4599 -3.6408 -2.0339 0.9808
2.7792 -3.4033 -2.0339 0.9808
3.0757 -3.1380 -2.0339 0.9808
3.3470 -2.8469 -2.0339 0.9808
3.5908 -2.5324 -2.0339 0.9808
3.8052 -2.1972 -2.0339 0.9808
3.9884 -1.8440 -2.0339 0.9808
4.2554 -1.0951 -2.0339 0.9808
-0.1655 -4.1430 -2.0339 0.9817
0.2100 -4.1410 -2.0339 0.9817
1.3139 -3.9326 -2.0339 0.9817
2.0009 -3.6316 -2.0339 0.9817
2.3213 -3.4356 -2.0339 0.9817
2.6226 -3.2116 -2.0339 0.9817
3.3885 -2.3897 -2.0339 0.9817
3.5908 -2.0734 -2.0339 0.9817
3.7637 -1.7400 -2.0339 0.9817
4.0156 -1.0335 -2.0339 0.9817
-0.8598 -3.8250 -2.0339 0.9825
0.1986 -3.9155 -2.0339 0.9825
0.5520 -3.8814 -2.0339 0.9825
0.9008 -3.8156 -2.0339 0.9825
1.8920 -3.4337 -2.0339 0.9825
2.1949 -3.2485 -2.0339 0.9825
2.7443 -2.7999 -2.0339 0.9825
3.2039 -2.2596 -2.0339 0.9825
3.3953 -1.9604 -2.0339 0.9825
3.5586 -1.6453 -2.0339 0.9825
3.6929 -1.3166 -2.0339 0.9825
3.7969 -0.9771 -2.0339 0.9825
-0.4832 -3.6819 -2.0339 0.9832
0.1880 -3.7087 -2.0339 0.9832
0.5228 -3.6765 -2.0339 0.9832
0.8532 -3.6141 -2.0339 0.9832
2.0790 -3.0770 -2.0339 0.9832
2.3489 -2.8763 -2.0339 0.9832
2.5994 -2.6520 -2.0339 0.9832
2.8287 -2.4060 -2.0339 0.9832
3.0347 -2.1402 -2.0339 0.9832
3.2159 -1.8570 -2.0339 0.9832
1.8570 -0.4779 -1.0502 0.9913
1.1163 -3.3412 -2.0339 0.9839
1.7001 -3.0854 -2.0339 0.9839
2.4659 -2.5158 -2.0339 0.9839
2.6835 -2.2825 -2.0339 0.9839
3.0508 -1.7616 -2.0339 0.9839
1.7239 -0.6146 -1.0567 0.9916
1.7135 -0.4410 -1.0215 0.9919
