ply
format ascii 1.0
element vertex 228
property float32 x
property float32 y
property float32 z
property float32 I
end_header
17.2440 -3.2616 -1.2868 0.9320
2.5987 -6.1883 -0.6444 0.9734
0.6664 -17.1079 -2.0337 0.9334
2.1957 -16.9796 -2.0337 0.9334
2.0185 -6.3466 -0.7911 0.9735
9.3388 -14.3507 -2.0338 0.9334
10.5863 -13.4569 -2.0338 0.9334
11.7489 -12.4551 -2.0339 0.9334
16.4723 -4.6760 -2.0340 0.9334
17.1231 -0.1303 -2.0340 0.9333
16.8721 2.9260 -2.0341 0.9333
16.0798 5.8885 -2.0341 0.9333
1.8408 -14.2352 -2.0338 0.9437
1.9480 -6.1251 -0.9107 0.9744
2.5065 -5.9688 -0.9173 0.9742
3.1903 -6.0212 -0.9655 0.9728
8.8752 -11.2818 -2.0339 0.9437
9.8498 -10.4418 -2.0339 0.9437
10.7453 -9.5180 -2.0339 0.9437
11.5545 -8.5177 -2.0339 0.9437
12.2709 -7.4489 -2.0339 0.9437
13.4030 -5.1409 -2.0340 0.9437
14.1052 -2.6679 -2.0340 0.9437
14.3073 1.1766 -2.0340 0.9437
13.8682 3.7097 -2.0341 0.9437
13.4804 4.9366 -2.0341 0.9437
12.9843 6.1238 -2.0341 0.9437
-0.6259 -12.3294 -2.0338 0.9512
3.1469 -5.9391 -1.1073 0.9731
7.6334 -9.7033 -2.0339 0.9512
8.4716 -8.9809 -2.0339 0.9512
9.2418 -8.1863 -2.0339 0.9512
12.1316 -2.2946 -2.0340 0.9512
12.3054 1.0119 -2.0340 0.9512
12.1654 2.1097 -2.0340 0.9512
11.9277 3.1906 -2.0340 0.9512
11.5941 4.2458 -2.0340 0.9512
-0.5486 -10.8063 -2.0338 0.9569
1.4267 -6.4325 -1.2384 0.9735
6.6904 -8.5045 -2.0339 0.9569
8.7100 -6.4208 -2.0339 0.9569
9.2500 -5.6152 -2.0339 0.9569
10.7702 -1.0510 -2.0340 0.9569
10.6623 1.8491 -2.0340 0.9569
10.1616 3.7212 -2.0340 0.9569
-0.4878 -9.6091 -2.0338 0.9614
0.3746 -9.6142 -2.0338 0.9614
1.4039 -6.3298 -1.3705 0.9738
1.8682 -5.8743 -1.3030 0.9751
2.4533 -5.8420 -1.3393 0.9744
5.2480 -8.0646 -2.0339 0.9614
5.9491 -7.5623 -2.0339 0.9614
7.2027 -6.3800 -2.0339 0.9614
8.2252 -4.9930 -2.0339 0.9614
8.6393 -4.2365 -2.0339 0.9614
8.9839 -3.4460 -2.0339 0.9614
9.2566 -2.6277 -2.0340 0.9614
9.4547 -1.7883 -2.0340 0.9614
9.5901 0.7887 -2.0340 0.9614
9.4810 1.6442 -2.0340 0.9614
9.2957 2.4866 -2.0340 0.9614
1.3567 -6.1173 -1.4726 0.9746
2.3829 -5.6743 -1.4464 0.9750
4.7201 -7.2533 -2.0339 0.9651
5.3506 -6.8016 -2.0339 0.9651
5.9382 -6.2951 -2.0339 0.9651
6.4780 -5.7382 -2.0339 0.9651
7.3977 -4.4908 -2.0339 0.9651
7.7702 -3.8103 -2.0339 0.9651
8.0802 -3.0993 -2.0339 0.9651
8.6253 0.7093 -2.0340 0.9651
8.5272 1.4788 -2.0340 0.9651
8.3605 2.2364 -2.0340 0.9651
7.8276 3.6918 -2.0340 0.9651
-0.3983 -7.8449 -2.0338 0.9681
1.0074 -7.7902 -2.0338 0.9681
1.8593 -5.8462 -1.5884 0.9750
3.0844 -5.8211 -1.7057 0.9731
4.2845 -6.5839 -2.0339 0.9681
4.8568 -6.1739 -2.0339 0.9681
5.3902 -5.7142 -2.0339 0.9681
6.3230 -4.6612 -2.0339 0.9681
6.7150 -4.0763 -2.0339 0.9681
7.3345 -2.8133 -2.0339 0.9681
7.8554 -0.0598 -2.0340 0.9681
7.8293 0.6438 -2.0340 0.9681
7.5889 2.0300 -2.0340 0.9681
7.1052 3.3510 -2.0340 0.9681
-0.3643 -7.1751 -2.0338 0.9706
0.9213 -7.1250 -2.0338 0.9706
1.3832 -6.2363 -1.8084 0.9738
2.5729 -6.1269 -1.8812 0.9728
5.3781 -4.7638 -2.0339 0.9706
5.7830 -4.2631 -2.0339 0.9706
7.1508 -0.6978 -2.0340 0.9706
7.1846 -0.0547 -2.0340 0.9706
7.1607 0.5888 -2.0340 0.9706
6.9408 1.8566 -2.0340 0.9706
-0.3353 -6.6039 -2.0338 0.9727
1.4318 -6.4555 -2.0338 0.9727
1.8998 -5.9735 -1.9280 0.9741
3.6067 -5.5423 -2.0339 0.9727
4.5375 -4.8102 -2.0339 0.9727
4.9499 -4.3846 -2.0339 0.9727
5.3227 -3.9238 -2.0339 0.9727
6.1741 -2.3682 -2.0339 0.9727
6.6127 -0.0503 -2.0340 0.9727
6.5156 1.1299 -2.0340 0.9727
6.2096 2.2740 -2.0340 0.9727
0.2382 -6.1139 -2.0338 0.9745
1.8544 -5.8308 -2.0339 0.9745
3.3373 -5.1284 -2.0339 0.9745
3.7831 -4.8090 -2.0339 0.9745
4.1986 -4.4509 -2.0339 0.9745
4.9252 -3.6307 -2.0339 0.9745
5.8863 -1.6710 -2.0339 0.9745
5.5343 2.6102 -2.0340 0.9745
-0.2884 -5.6801 -2.0338 0.9761
0.2214 -5.6830 -2.0338 0.9761
0.7294 -5.6404 -2.0338 0.9761
3.5165 -4.4701 -2.0339 0.9761
4.2575 -3.7712 -2.0339 0.9761
5.1067 -2.5042 -2.0339 0.9761
5.3104 -2.0369 -2.0339 0.9761
5.4714 -1.5532 -2.0339 0.9761
5.5886 -1.0571 -2.0339 0.9761
5.6875 -0.0433 -2.0339 0.9761
5.6041 0.9719 -2.0340 0.9761
5.4945 1.4697 -2.0340 0.9761
5.3409 1.9558 -2.0340 0.9761
5.1443 2.4262 -2.0340 0.9761
-0.2691 -5.3004 -2.0338 0.9775
0.2066 -5.3033 -2.0338 0.9775
1.6085 -5.0577 -2.0339 0.9775
2.0549 -4.8934 -2.0339 0.9775
2.8948 -4.4484 -2.0339 0.9775
4.2721 -3.1493 -2.0339 0.9775
4.5370 -2.7541 -2.0339 0.9775
4.9555 -1.9007 -2.0339 0.9775
5.2151 -0.9864 -2.0339 0.9775
5.2825 -0.5155 -2.0339 0.9775
5.2897 0.4350 -2.0340 0.9775
5.2295 0.9069 -2.0340 0.9775
5.1273 1.3715 -2.0340 0.9775
4.9839 1.8251 -2.0340 0.9775
4.8005 2.2640 -2.0340 0.9775
0.1934 -4.9656 -2.0338 0.9788
0.6373 -4.9284 -2.0339 0.9788
2.7105 -4.1652 -2.0339 0.9788
3.0726 -3.9057 -2.0339 0.9788
3.4100 -3.6150 -2.0339 0.9788
4.0001 -2.9488 -2.0339 0.9788
4.2481 -2.5788 -2.0339 0.9788
4.6400 -1.7797 -2.0339 0.9788
4.8831 -0.9236 -2.0339 0.9787
4.8009 1.2842 -2.0340 0.9787
4.6666 1.7089 -2.0340 0.9787
4.4948 2.1199 -2.0340 0.9787
-0.2366 -4.6608 -2.0338 0.9798
0.1817 -4.6632 -2.0338 0.9798
1.0105 -4.5561 -2.0339 0.9798
2.1850 -4.1237 -2.0339 0.9798
3.9894 -2.4217 -2.0339 0.9798
4.3574 -1.6713 -2.0339 0.9798
4.4896 -1.2745 -2.0339 0.9798
4.6449 -0.4533 -2.0339 0.9798
4.6668 -0.0355 -2.0339 0.9798
-0.2228 -4.3882 -2.0338 0.9808
0.1711 -4.3905 -2.0339 0.9808
0.5634 -4.3576 -2.0339 0.9808
0.9514 -4.2896 -2.0339 0.9808
1.3317 -4.1872 -2.0339 0.9808
2.0572 -3.8826 -2.0339 0.9808
2.3966 -3.6828 -2.0339 0.9808
3.0151 -3.1962 -2.0339 0.9808
3.5368 -2.6073 -2.0339 0.9808
3.7561 -2.2801 -2.0339 0.9808
4.1026 -1.5736 -2.0339 0.9808
4.2270 -1.1999 -2.0339 0.9808
4.3175 -0.8166 -2.0339 0.9808
4.3939 -0.0334 -2.0339 0.9808
4.3793 0.3601 -2.0339 0.9808
4.2449 1.1354 -2.0339 0.9808
3.9743 1.8744 -2.0340 0.9808
-0.2102 -4.1410 -2.0339 0.9817
1.2566 -3.9513 -2.0339 0.9817
2.5636 -3.2588 -2.0339 0.9817
3.5445 -2.1516 -2.0339 0.9817
3.7229 -1.8256 -2.0339 0.9817
3.9889 -1.1323 -2.0339 0.9817
4.0057 1.0715 -2.0339 0.9817
3.7503 1.7688 -2.0340 0.9817
0.5028 -3.8881 -2.0339 0.9825
1.1882 -3.7361 -2.0339 0.9825
1.5180 -3.6147 -2.0339 0.9825
2.1384 -3.2860 -2.0339 0.9825
2.4240 -3.0813 -2.0339 0.9825
2.9348 -2.5996 -2.0339 0.9825
3.1558 -2.3264 -2.0339 0.9825
3.3514 -2.0345 -2.0339 0.9825
3.5201 -1.7262 -2.0339 0.9825
3.6606 -1.4041 -2.0339 0.9825
2.0758 0.1707 -1.0805 0.9907
3.6816 1.3482 -2.0339 0.9825
3.5461 1.6724 -2.0339 0.9825
0.1445 -3.7106 -2.0339 0.9832
0.8041 -3.6254 -2.0339 0.9832
1.4378 -3.4238 -2.0339 0.9832
2.0254 -3.1125 -2.0339 0.9832
2.2961 -2.9186 -2.0339 0.9832
2.5481 -2.7013 -2.0339 0.9832
2.7798 -2.4623 -2.0339 0.9832
2.9891 -2.2035 -2.0339 0.9832
1.8549 -0.3509 -1.0339 0.9914
1.8508 -0.0141 -1.0137 0.9916
3.4871 1.2770 -2.0339 0.9832
3.3588 1.5841 -2.0339 0.9832
-0.1787 -3.5182 -2.0339 0.9839
0.1371 -3.5201 -2.0339 0.9839
0.4518 -3.4937 -2.0339 0.9839
0.7628 -3.4392 -2.0339 0.9839
1.6494 -3.1128 -2.0339 0.9839
2.1782 -2.7687 -2.0339 0.9839
2.6371 -2.3359 -2.0339 0.9839
1.7137 -0.3241 -1.0069 0.9920
1.7220 0.1416 -0.9975 0.9921
1.7141 0.2972 -1.0044 0.9920
1.7125 0.4581 -1.0235 0.9918
