ply
format ascii 1.0
element vertex 180
property float32 x
property float32 y
property float32 z
property float32 I
end_header
-11.6663 12.0029 2.1797 0.9347
-11.4941 14.1125 1.9545 0.9294
-11.9734 12.3188 1.8447 0.9332
-11.2936 13.8663 1.5139 0.9307
-12.0522 14.7978 1.1835 0.9264
-9.6091 14.1726 -2.0340 0.9334
-10.8132 13.2765 -2.0340 0.9334
-13.8930 10.0079 -2.0339 0.9334
-14.7159 8.7527 -2.0339 0.9334
-16.0169 6.0510 -2.0338 0.9334
-16.4852 4.6252 -2.0338 0.9334
-17.0389 1.6781 -2.0338 0.9334
-17.1202 0.1796 -2.0338 0.9334
-17.0700 -1.3203 -2.0337 0.9334
-16.8887 -2.8100 -2.0337 0.9334
-6.9845 12.5415 -2.0340 0.9437
-8.0559 11.8816 -2.0340 0.9437
-10.0050 10.2937 -2.0339 0.9437
-13.4280 5.0729 -2.0338 0.9437
-13.8205 3.8775 -2.0338 0.9437
-14.3530 0.1505 -2.0338 0.9437
-14.3109 -1.1069 -2.0338 0.9437
-13.8982 -3.5866 -2.0337 0.9437
-10.0177 7.2162 -2.0339 0.9512
-10.6110 6.3112 -2.0339 0.9512
-11.1228 5.3578 -2.0339 0.9512
-11.8868 3.3350 -2.0338 0.9512
-12.2862 1.2100 -2.0338 0.9512
-12.3448 0.1295 -2.0338 0.9512
-12.3087 -0.9520 -2.0338 0.9512
-12.1780 -2.0262 -2.0338 0.9512
-11.9537 -3.0848 -2.0338 0.9512
-6.8336 8.3903 -2.0339 0.9569
-7.5420 7.7596 -2.0339 0.9569
-8.7800 6.3247 -2.0339 0.9569
-10.1224 3.8241 -2.0339 0.9569
-10.6341 1.9994 -2.0338 0.9569
-10.7684 1.0605 -2.0338 0.9569
-10.7881 -0.8344 -2.0338 0.9569
-10.6736 -1.7759 -2.0338 0.9569
-10.4770 -2.7037 -2.0338 0.9569
-10.2000 -3.6108 -2.0338 0.9569
-6.7064 6.8999 -2.0339 0.9614
-7.2848 6.2861 -2.0339 0.9614
-7.8072 5.6240 -2.0339 0.9614
-8.6686 4.1756 -2.0339 0.9614
-9.5754 0.9430 -2.0338 0.9614
-9.4910 -1.5791 -2.0338 0.9614
-9.0700 -3.2108 -2.0338 0.9614
-4.8566 7.1630 -2.0339 0.9651
-6.5520 5.6537 -2.0339 0.9651
-7.4378 4.4238 -2.0339 0.9651
-8.0955 3.0583 -2.0339 0.9651
-8.5048 1.5991 -2.0338 0.9651
-3.8221 6.8630 -2.0339 0.9681
-4.4084 6.5019 -2.0339 0.9681
-5.4751 5.6331 -2.0339 0.9681
-6.3738 4.5914 -2.0339 0.9681
-7.3484 2.7761 -2.0339 0.9681
-7.5632 2.1220 -2.0339 0.9681
-7.7199 1.4515 -2.0339 0.9681
-7.8547 0.0824 -2.0338 0.9681
-7.8317 -0.6058 -2.0338 0.9681
-7.7485 -1.2892 -2.0338 0.9681
-7.6059 -1.9628 -2.0338 0.9681
-7.4047 -2.6213 -2.0338 0.9681
-4.5371 5.5708 -2.0339 0.9706
-5.0075 5.1520 -2.0339 0.9706
-5.8295 4.1993 -2.0339 0.9706
-6.1748 3.6727 -2.0339 0.9706
-6.7209 2.5390 -2.0339 0.9706
-7.0607 1.3276 -2.0339 0.9706
-7.1498 0.7042 -2.0338 0.9706
-7.1840 0.0753 -2.0338 0.9706
-7.1629 -0.5540 -2.0338 0.9706
-7.0868 -1.1791 -2.0338 0.9706
-6.9564 -1.7952 -2.0338 0.9706
-6.7724 -2.3975 -2.0338 0.9706
-3.2175 5.7772 -2.0339 0.9727
-3.7110 5.4733 -2.0339 0.9727
-5.0064 4.3200 -2.0339 0.9727
-5.3655 3.8650 -2.0339 0.9727
-6.1858 2.3369 -2.0339 0.9727
-6.4986 1.2219 -2.0339 0.9727
-6.5806 0.6481 -2.0339 0.9727
-6.5927 -0.5099 -2.0338 0.9727
-6.4026 -1.6523 -2.0338 0.9727
-2.9771 5.3457 -2.0339 0.9745
-3.8641 4.7443 -2.0339 0.9745
-4.6325 3.9974 -2.0339 0.9745
-5.8911 1.6528 -2.0339 0.9745
-6.0132 1.1306 -2.0339 0.9745
-6.0891 0.5997 -2.0339 0.9745
-6.1182 0.0642 -2.0338 0.9745
-2.7673 4.9690 -2.0339 0.9761
-3.5918 4.4100 -2.0339 0.9761
-4.3060 3.7157 -2.0339 0.9761
-4.6148 3.3243 -2.0339 0.9761
-5.3204 2.0100 -2.0339 0.9761
-5.5895 1.0509 -2.0339 0.9761
-5.6871 0.0597 -2.0339 0.9761
-5.6102 -0.9335 -2.0338 0.9761
-5.5069 -1.4212 -2.0338 0.9761
-5.3613 -1.8979 -2.0338 0.9761
-2.5824 4.6369 -2.0339 0.9775
-3.3517 4.1152 -2.0339 0.9775
-3.6992 3.8059 -2.0339 0.9775
-4.0182 3.4674 -2.0339 0.9775
-4.3064 3.1021 -2.0339 0.9775
-4.7816 2.3032 -2.0339 0.9775
-5.1100 1.4337 -2.0339 0.9775
-5.2159 0.9807 -2.0339 0.9775
-5.2818 0.5202 -2.0339 0.9775
-5.3070 0.0557 -2.0339 0.9775
-5.2915 -0.4093 -2.0339 0.9775
-2.7889 4.1132 -2.0339 0.9788
-4.0323 2.9046 -2.0339 0.9788
-4.2711 2.5404 -2.0339 0.9788
-4.6488 1.7562 -2.0339 0.9788
-2.1207 0.3987 -0.8831 0.9907
-2.1148 0.2082 -0.8697 0.9909
-2.1171 -0.3523 -0.8784 0.9908
-4.6845 -1.6583 -2.0338 0.9788
-2.2707 4.0772 -2.0339 0.9798
-3.2527 3.3466 -2.0339 0.9798
-3.5332 3.0489 -2.0339 0.9798
-4.2045 2.0253 -2.0339 0.9798
-1.9051 0.3582 -0.8448 0.9916
-1.9111 0.1882 -0.8369 0.9917
-1.9185 0.0201 -0.8362 0.9917
-2.1379 3.8388 -2.0339 0.9808
-2.4659 3.6369 -2.0339 0.9808
-3.0625 3.1509 -2.0339 0.9808
-3.7764 2.2462 -2.0339 0.9808
-3.9586 1.9068 -2.0339 0.9808
-4.1104 1.5528 -2.0339 0.9808
-1.5537 0.4359 -0.7469 0.9929
-1.6052 0.3018 -0.7560 0.9928
-1.6112 -0.2681 -0.7560 0.9928
-2.0175 3.6225 -2.0339 0.9817
-2.3269 3.4320 -2.0339 0.9817
-2.6185 3.2150 -2.0339 0.9817
-2.8900 2.9733 -2.0339 0.9817
-3.1392 2.7088 -2.0339 0.9817
-3.3643 2.4235 -2.0339 0.9817
-1.2586 0.4755 -0.6600 0.9940
-1.3045 0.3660 -0.6646 0.9940
-1.3377 0.2515 -0.6677 0.9940
-1.3535 0.1333 -0.6671 0.9940
-1.3389 0.0140 -0.6568 0.9941
-1.3135 -0.3390 -0.6654 0.9940
-1.2687 -0.4492 -0.6602 0.9940
-1.9076 3.4252 -2.0339 0.9825
-2.2002 3.2450 -2.0339 0.9825
-2.9682 2.5613 -2.0339 0.9825
-3.3696 2.0042 -2.0339 0.9825
-3.5321 1.7014 -2.0339 0.9825
-1.2003 0.1182 -0.6257 0.9946
-1.2004 -0.0929 -0.6246 0.9946
-1.1902 -0.1981 -0.6260 0.9946
-1.1638 -0.3004 -0.6236 0.9946
-1.1341 -0.4015 -0.6241 0.9946
-3.0131 2.1705 -2.0339 0.9832
-3.1916 1.8983 -2.0339 0.9832
-0.9882 0.4760 -0.6007 0.9950
-1.0193 0.3850 -0.5968 0.9950
-1.0383 0.2913 -0.5907 0.9951
-1.0773 0.0113 -0.5901 0.9951
-1.0686 -0.1778 -0.5933 0.9951
-1.0425 -0.2691 -0.5897 0.9951
-1.9770 2.9158 -2.0339 0.9839
-2.2247 2.7315 -2.0339 0.9839
-2.4554 2.5262 -2.0339 0.9839
-2.8584 2.0591 -2.0339 0.9839
-3.0277 1.8008 -2.0339 0.9839
-0.9430 0.3562 -0.5820 0.9954
-0.9585 0.2689 -0.5748 0.9954
-0.9771 0.1837 -0.5740 0.9954
-0.9893 -0.0766 -0.5729 0.9954
-0.9614 -0.2481 -0.5733 0.9954
