ply
format ascii 1.0
element vertex 230
property float32 x
property float32 y
property float32 z
property float32 I
end_header
13.5556 9.1416 -0.8292 0.9366
13.4684 9.0828 -1.1911 0.9369
16.3884 -3.4165 -1.6072 0.9349
15.2521 -7.7822 -2.0339 0.9334
17.0069 -1.9948 -2.0340 0.9333
17.1169 -0.4794 -2.0340 0.9333
17.0921 1.0397 -2.0341 0.9333
16.2164 5.5010 -2.0341 0.9333
14.9903 8.2783 -2.0341 0.9333
13.2930 10.7954 -2.0341 0.9333
12.2837 11.9313 -2.0341 0.9333
8.7111 14.7432 -2.0341 0.9333
7.3698 15.4573 -2.0341 0.9333
5.9707 16.0497 -2.0341 0.9333
4.5245 16.5157 -2.0341 0.9333
12.7866 -6.5243 -2.0339 0.9437
13.3148 -5.3652 -2.0340 0.9437
13.7380 -4.1638 -2.0340 0.9437
14.2577 -1.6724 -2.0340 0.9437
14.3499 -0.4020 -2.0340 0.9437
14.3291 0.8717 -2.0340 0.9437
13.9502 3.3884 -2.0341 0.9437
13.5949 4.6117 -2.0341 0.9437
12.5670 6.9400 -2.0341 0.9437
11.9024 8.0267 -2.0341 0.9437
11.1440 9.0502 -2.0341 0.9437
7.3029 12.3598 -2.0341 0.9437
6.1785 12.9585 -2.0341 0.9437
10.9975 -5.6114 -2.0339 0.9512
11.8157 -3.5812 -2.0340 0.9512
12.0868 -2.5197 -2.0340 0.9512
12.2627 -1.4384 -2.0340 0.9512
11.2950 4.9873 -2.0341 0.9512
10.8086 5.9689 -2.0341 0.9512
10.2369 6.9036 -2.0341 0.9512
6.2810 10.6303 -2.0341 0.9512
5.3139 11.1452 -2.0341 0.9512
4.3051 11.5724 -2.0341 0.9512
9.6388 -4.9181 -2.0339 0.9569
10.0369 -4.0443 -2.0339 0.9569
10.3560 -3.1387 -2.0340 0.9569
10.5935 -2.2084 -2.0340 0.9569
10.7476 -1.2607 -2.0340 0.9569
10.8171 -0.3030 -2.0340 0.9569
10.8014 0.6571 -2.0340 0.9569
10.7007 1.6120 -2.0340 0.9569
10.5157 2.5542 -2.0340 0.9569
10.2480 3.4763 -2.0340 0.9569
9.4731 5.2314 -2.0340 0.9569
8.9721 6.0506 -2.0340 0.9569
8.4004 6.8221 -2.0340 0.9569
7.7626 7.5399 -2.0341 0.9569
6.3091 8.7922 -2.0341 0.9569
4.6574 9.7682 -2.0340 0.9569
8.9248 -3.5963 -2.0339 0.9614
9.4198 -1.9637 -2.0340 0.9614
9.5569 -1.1210 -2.0340 0.9614
9.6186 -0.2694 -2.0340 0.9614
9.3506 2.2712 -2.0340 0.9614
9.1125 3.0912 -2.0340 0.9614
8.8027 3.8868 -2.0340 0.9614
8.4235 4.6518 -2.0340 0.9614
7.9780 5.3802 -2.0340 0.9614
6.9026 6.7045 -2.0340 0.9614
6.2811 7.2900 -2.0340 0.9614
5.6101 7.8180 -2.0340 0.9614
4.1414 8.6859 -2.0340 0.9614
3.3551 9.0188 -2.0340 0.9614
2.5424 9.2806 -2.0340 0.9614
8.0271 -3.2345 -2.0339 0.9651
8.2822 -2.5102 -2.0339 0.9651
8.5954 -1.0082 -2.0340 0.9651
8.5579 1.2892 -2.0340 0.9651
8.1958 2.7802 -2.0340 0.9651
7.9171 3.4957 -2.0340 0.9651
7.5761 4.1838 -2.0340 0.9651
6.2081 6.0300 -2.0340 0.9651
5.6492 6.5566 -2.0340 0.9651
5.0457 7.0315 -2.0340 0.9651
4.4025 7.4511 -2.0340 0.9651
2.2866 8.3470 -2.0340 0.9651
6.9973 -3.5703 -2.0339 0.9681
7.2862 -2.9360 -2.0339 0.9681
7.6902 -1.6032 -2.0339 0.9681
7.1864 3.1731 -2.0340 0.9681
6.5132 4.3923 -2.0340 0.9681
4.5800 6.3826 -2.0340 0.9681
3.9962 6.7634 -2.0340 0.9681
3.3809 7.0910 -2.0340 0.9681
2.7390 7.3628 -2.0340 0.9681
2.0756 7.5766 -2.0340 0.9681
6.3997 -3.2654 -2.0339 0.9706
6.6640 -2.6853 -2.0339 0.9706
6.8759 -2.0840 -2.0339 0.9706
7.0336 -1.4663 -2.0339 0.9706
7.1046 1.0703 -2.0340 0.9706
6.9819 1.6958 -2.0340 0.9706
6.5727 2.9021 -2.0340 0.9706
6.2896 3.4733 -2.0340 0.9706
3.6549 6.1858 -2.0340 0.9706
3.0922 6.4855 -2.0340 0.9706
2.5051 6.7340 -2.0340 0.9706
1.8984 6.9296 -2.0340 0.9706
6.1335 -2.4715 -2.0339 0.9727
6.6102 -0.1852 -2.0340 0.9727
6.5391 0.9851 -2.0340 0.9727
5.1334 4.1688 -2.0340 0.9727
4.7436 4.6075 -2.0340 0.9727
2.8461 5.9692 -2.0340 0.9727
1.7472 6.3779 -2.0340 0.9727
5.6754 -2.2869 -2.0339 0.9745
5.9901 -1.2488 -2.0339 0.9745
6.0772 -0.7129 -2.0339 0.9745
6.1165 -0.1713 -2.0340 0.9745
6.1076 0.3715 -2.0340 0.9745
6.0507 0.9115 -2.0340 0.9745
5.9461 1.4443 -2.0340 0.9745
5.7946 1.9657 -2.0340 0.9745
5.0732 3.4212 -2.0340 0.9745
4.7499 3.8575 -2.0340 0.9745
4.3893 4.2633 -2.0340 0.9745
3.1127 5.2681 -2.0340 0.9745
2.6335 5.5233 -2.0340 0.9745
2.1335 5.7350 -2.0340 0.9745
5.2754 -2.1257 -2.0339 0.9761
5.5680 -1.1608 -2.0339 0.9761
5.6489 -0.6626 -2.0339 0.9761
5.6854 -0.1593 -2.0339 0.9761
5.6772 0.3454 -2.0340 0.9761
5.6243 0.8472 -2.0340 0.9761
5.5270 1.3425 -2.0340 0.9761
5.2031 2.2974 -2.0340 0.9761
4.7156 3.1801 -2.0340 0.9761
4.4152 3.5856 -2.0340 0.9761
3.7126 4.3089 -2.0340 0.9761
3.3161 4.6211 -2.0340 0.9761
2.8934 4.8968 -2.0340 0.9761
1.9831 5.3308 -2.0340 0.9761
1.5028 5.4856 -2.0340 0.9761
5.0793 -1.5395 -2.0339 0.9775
5.1958 -1.0832 -2.0339 0.9775
5.2714 -0.6183 -2.0339 0.9775
5.3055 -0.1486 -2.0339 0.9775
5.2978 0.3223 -2.0339 0.9775
5.2484 0.7906 -2.0340 0.9775
5.1576 1.2527 -2.0340 0.9775
5.0263 1.7050 -2.0340 0.9775
4.6462 2.5658 -2.0340 0.9775
4.4004 2.9676 -2.0340 0.9775
3.8073 3.6980 -2.0340 0.9775
3.4645 4.0210 -2.0340 0.9775
2.2843 4.7909 -2.0340 0.9775
1.4023 5.1190 -2.0340 0.9775
4.4267 -2.2587 -2.0339 0.9788
4.6095 -1.8574 -2.0339 0.9788
4.8650 -1.0142 -2.0339 0.9788
4.9358 -0.5790 -2.0339 0.9787
4.9677 -0.1392 -2.0339 0.9788
4.9605 0.3018 -2.0339 0.9787
4.3504 2.4024 -2.0340 0.9787
3.2439 3.7650 -2.0340 0.9787
2.8974 4.0377 -2.0340 0.9787
2.5281 4.2786 -2.0340 0.9787
2.1388 4.4859 -2.0340 0.9787
4.3287 -1.7443 -2.0339 0.9798
4.4663 -1.3537 -2.0339 0.9798
4.5687 -0.9524 -2.0339 0.9798
4.6651 -0.1307 -2.0339 0.9798
4.6584 0.2834 -2.0339 0.9798
4.6150 0.6952 -2.0339 0.9798
4.5352 1.1015 -2.0340 0.9798
4.4196 1.4992 -2.0340 0.9798
4.0854 2.2561 -2.0340 0.9798
3.8694 2.6094 -2.0340 0.9798
3.3478 3.2517 -2.0340 0.9798
2.7209 3.7918 -2.0340 0.9798
2.0086 4.2127 -2.0340 0.9798
1.6273 4.3741 -2.0340 0.9798
4.3016 -0.8968 -2.0339 0.9808
4.3923 -0.1231 -2.0339 0.9808
4.3450 0.6545 -2.0339 0.9808
4.1612 1.4115 -2.0340 0.9808
3.8465 2.1242 -2.0340 0.9808
3.6431 2.4568 -2.0340 0.9808
3.1520 3.0615 -2.0340 0.9808
2.8682 3.3289 -2.0340 0.9808
1.8911 3.9663 -2.0340 0.9808
1.5320 4.1184 -2.0340 0.9808
1.1610 4.2379 -2.0340 0.9808
3.6934 -1.8845 -2.0339 0.9817
3.9682 -1.2027 -2.0339 0.9817
4.0592 -0.8462 -2.0339 0.9817
4.1002 0.6176 -2.0339 0.9817
2.9744 2.8890 -2.0340 0.9817
2.7066 3.1413 -2.0340 0.9817
2.4175 3.3689 -2.0340 0.9817
2.1093 3.5699 -2.0340 0.9817
1.7846 3.7428 -2.0340 0.9817
1.4457 3.8863 -2.0340 0.9817
1.0955 3.9991 -2.0340 0.9817
2.0759 -0.0582 -1.0774 0.9907
3.8099 0.9254 -2.0339 0.9825
3.2506 2.1921 -2.0340 0.9825
3.0435 2.4716 -2.0340 0.9825
1.9944 3.3755 -2.0340 0.9825
1.6873 3.5390 -2.0340 0.9825
1.3670 3.6746 -2.0340 0.9825
1.0359 3.7813 -2.0340 0.9825
3.4444 -1.3879 -2.0339 0.9832
1.8465 -0.2166 -1.0182 0.9916
1.8525 0.1127 -1.0165 0.9916
1.8484 0.2784 -1.0238 0.9915
3.3972 1.5000 -2.0339 0.9832
3.2508 1.7952 -2.0339 0.9832
2.6639 2.5874 -2.0340 0.9832
2.4240 2.8134 -2.0340 0.9832
1.8891 3.1972 -2.0340 0.9832
1.5982 3.3521 -2.0340 0.9832
3.1379 -1.6011 -2.0339 0.9839
1.7530 -0.7064 -1.0912 0.9913
1.7177 -0.5206 -1.0362 0.9917
1.7147 -0.3575 -1.0113 0.9919
1.7175 -0.2015 -0.9984 0.9920
1.7245 -0.0483 -0.9960 0.9921
1.7233 0.1048 -0.9968 0.9921
3.0839 1.7030 -2.0339 0.9839
2.7347 2.2209 -2.0339 0.9839
2.5271 2.4545 -2.0339 0.9839
2.0539 2.8622 -2.0340 0.9839
0.9308 3.3977 -2.0339 0.9839
