ply
format ascii 1.0
element vertex 160
property float32 x
property float32 y
property float32 z
property float32 I
end_header
-12.0026 -7.9330 -1.0549 0.9439
-11.7470 -7.7641 -1.3518 0.9450
2.4929 -6.1215 -0.6346 0.9738
-13.3596 -10.7064 -2.0337 0.9334
-11.1865 -12.9603 -2.0337 0.9334
-8.6392 -14.7808 -2.0337 0.9334
-5.8030 -16.1070 -2.0337 0.9334
-1.2163 -17.0775 -2.0337 0.9334
0.3504 -17.1172 -2.0337 0.9334
-11.9743 -7.9143 -2.0337 0.9437
-11.2004 -8.9760 -2.0337 0.9437
-9.3784 -10.8656 -2.0337 0.9437
-4.8651 -13.5037 -2.0337 0.9437
-3.6099 -13.8920 -2.0337 0.9437
2.9023 -14.0573 -2.0338 0.9437
2.4274 -5.9607 -0.9119 0.9743
-10.2989 -6.8070 -2.0337 0.9512
-9.6334 -7.7202 -2.0337 0.9512
-7.1780 -10.0438 -2.0337 0.9512
-4.1844 -11.6145 -2.0337 0.9512
-1.9994 -12.1823 -2.0337 0.9512
-0.8770 -12.3141 -2.0338 0.9512
1.3802 -12.2680 -2.0338 0.9512
2.4962 -12.0905 -2.0338 0.9512
-9.0267 -5.9661 -2.0338 0.9569
-8.4434 -6.7665 -2.0338 0.9569
-6.2912 -8.8031 -2.0337 0.9569
-5.4600 -9.3415 -2.0337 0.9569
-3.6675 -10.1796 -2.0338 0.9569
-0.7687 -10.7929 -2.0338 0.9569
0.2214 -10.8180 -2.0338 0.9569
2.1878 -10.5969 -2.0338 0.9569
2.3860 -5.8589 -1.1891 0.9746
-8.4782 -4.5490 -2.0338 0.9614
-8.0267 -5.3052 -2.0338 0.9614
-6.2866 -7.2835 -2.0338 0.9614
-4.8551 -8.3066 -2.0338 0.9614
-4.0752 -8.7157 -2.0338 0.9614
-2.4198 -9.3121 -2.0338 0.9614
-1.5582 -9.4945 -2.0338 0.9614
0.1969 -9.6195 -2.0338 0.9614
1.0757 -9.5612 -2.0338 0.9614
-5.6543 -6.5508 -2.0338 0.9651
-5.0316 -7.0404 -2.0338 0.9651
-4.3667 -7.4710 -2.0338 0.9651
-2.1764 -8.3754 -2.0338 0.9651
-1.4015 -8.5394 -2.0338 0.9651
-0.6148 -8.6318 -2.0338 0.9651
0.9675 -8.5995 -2.0338 0.9651
2.3083 -5.6683 -1.4384 0.9752
-6.5530 -4.3312 -2.0338 0.9681
-4.5672 -6.3907 -2.0338 0.9681
-3.3270 -7.1156 -2.0338 0.9681
-1.9755 -7.6025 -2.0338 0.9681
-1.2721 -7.7513 -2.0338 0.9681
0.8782 -7.8059 -2.0338 0.9681
1.2757 -6.1791 -1.6336 0.9743
1.7870 -5.8775 -1.5906 0.9749
2.3748 -5.8317 -1.6303 0.9743
-6.3306 -3.3967 -2.0338 0.9706
-5.9934 -3.9613 -2.0338 0.9706
-4.6942 -5.4385 -2.0338 0.9706
-2.4351 -6.7590 -2.0338 0.9706
2.4939 -6.1239 -1.8719 0.9729
-5.8266 -3.1263 -2.0338 0.9727
-5.1598 -4.1351 -2.0338 0.9727
-4.7601 -4.5896 -2.0338 0.9727
-4.3205 -5.0056 -2.0338 0.9727
-2.8007 -5.9899 -2.0338 0.9727
-1.0709 -6.5251 -2.0338 0.9727
0.7393 -6.5710 -2.0338 0.9727
1.3370 -6.4759 -2.0338 0.9727
2.4940 -6.1241 -2.0339 0.9727
-5.3914 -2.8928 -2.0338 0.9745
-5.1044 -3.3737 -2.0338 0.9745
-3.9978 -4.6317 -2.0338 0.9745
-3.5576 -4.9779 -2.0338 0.9745
-2.5915 -5.5426 -2.0338 0.9745
-2.0739 -5.7563 -2.0338 0.9745
-0.4347 -6.1031 -2.0338 0.9745
0.1252 -6.1172 -2.0338 0.9745
1.2371 -5.9922 -2.0338 0.9745
2.3077 -5.6667 -2.0339 0.9745
-4.4380 -3.5566 -2.0338 0.9761
-4.0942 -3.9475 -2.0338 0.9761
-3.3068 -4.6271 -2.0338 0.9761
-2.8699 -4.9101 -2.0338 0.9761
-2.4089 -5.1520 -2.0338 0.9761
-0.9211 -5.6123 -2.0338 0.9761
-0.4041 -5.6730 -2.0338 0.9761
0.1164 -5.6862 -2.0338 0.9761
1.1500 -5.5699 -2.0338 0.9761
1.6544 -5.4414 -2.0339 0.9761
-3.4678 -4.0176 -2.0338 0.9775
-3.0859 -4.3179 -2.0338 0.9775
-2.6781 -4.5820 -2.0338 0.9775
-1.7989 -4.9931 -2.0338 0.9775
-0.8595 -5.2372 -2.0338 0.9775
-0.3770 -5.2938 -2.0338 0.9775
0.1086 -5.3062 -2.0338 0.9775
0.5933 -5.2740 -2.0338 0.9775
2.0017 -4.9154 -2.0339 0.9775
-3.5774 -3.4492 -2.0338 0.9788
-3.2470 -3.7619 -2.0338 0.9788
-2.8894 -4.0430 -2.0338 0.9788
-2.1048 -4.5016 -2.0338 0.9788
0.5555 -4.9383 -2.0338 0.9788
1.0048 -4.8668 -2.0339 0.9788
-3.6416 -2.9184 -2.0338 0.9798
-3.3595 -3.2391 -2.0338 0.9798
-2.7134 -3.7968 -2.0338 0.9798
-2.3549 -4.0290 -2.0338 0.9798
-0.7558 -4.6052 -2.0338 0.9798
-0.3316 -4.6550 -2.0338 0.9798
0.0955 -4.6658 -2.0338 0.9798
1.3575 -4.4650 -2.0339 0.9798
-3.4286 -2.7477 -2.0338 0.9808
-3.1631 -3.0497 -2.0338 0.9808
-1.1051 -4.2526 -2.0338 0.9808
0.0899 -4.3930 -2.0339 0.9808
0.4912 -4.3663 -2.0339 0.9808
-3.4590 -2.2862 -2.0338 0.9817
-3.2355 -2.5929 -2.0338 0.9817
-2.9848 -2.8779 -2.0338 0.9817
-2.7092 -3.1388 -2.0338 0.9817
-2.0923 -3.5797 -2.0338 0.9817
-1.7562 -3.7560 -2.0338 0.9817
-1.4054 -3.9008 -2.0338 0.9817
-1.0428 -4.0130 -2.0338 0.9817
-0.2946 -4.1358 -2.0339 0.9817
0.0848 -4.1454 -2.0339 0.9817
1.5639 -3.8401 -2.0339 0.9817
-3.4546 -1.8536 -2.0338 0.9825
-2.2795 -3.1896 -2.0338 0.9825
-1.9784 -3.3847 -2.0338 0.9825
-1.6605 -3.5514 -2.0338 0.9825
0.0802 -3.9197 -2.0339 0.9825
0.4383 -3.8959 -2.0339 0.9825
1.4787 -3.6310 -2.0339 0.9825
-3.2721 -1.7557 -2.0339 0.9832
-3.0979 -2.0475 -2.0339 0.9832
-2.8977 -2.3222 -2.0338 0.9832
-1.5729 -3.3639 -2.0338 0.9832
-0.9340 -3.5941 -2.0339 0.9832
-0.6014 -3.6644 -2.0339 0.9832
0.0760 -3.7127 -2.0339 0.9832
0.4152 -3.6902 -2.0339 0.9832
0.7508 -3.6367 -2.0339 0.9832
-0.9026 -0.4843 -0.5914 0.9953
-2.9388 -1.9424 -2.0339 0.9839
-2.7489 -2.2030 -2.0339 0.9839
-2.5359 -2.4451 -2.0339 0.9839
-2.3018 -2.6668 -2.0339 0.9839
-1.7777 -3.0413 -2.0339 0.9839
-1.4921 -3.1911 -2.0339 0.9839
-1.1941 -3.3142 -2.0339 0.9839
0.3938 -3.5007 -2.0339 0.9839
0.7123 -3.4500 -2.0339 0.9839
1.0248 -3.3704 -2.0339 0.9839
1.3286 -3.2626 -2.0339 0.9839
