ply
format ascii 1.0
element vertex 212
property float32 x
property float32 y
property float32 z
property float32 I
end_header
-12.0038 -7.9270 -1.0547 0.9439
-11.7458 -7.7566 -1.3513 0.9450
-17.1097 0.6277 -2.0338 0.9334
-16.9521 -2.3986 -2.0337 0.9334
-16.6733 -3.8894 -2.0337 0.9334
-16.2635 -5.3496 -2.0337 0.9334
-15.7262 -6.7679 -2.0337 0.9334
-12.3993 -11.8053 -2.0337 0.9334
-11.3059 -12.8563 -2.0337 0.9334
-10.1238 -13.8064 -2.0337 0.9334
-6.1409 -15.9812 -2.0337 0.9334
-4.7025 -16.4620 -2.0337 0.9334
-3.2273 -16.8137 -2.0337 0.9334
-1.7266 -17.0334 -2.0337 0.9334
-0.2124 -17.1195 -2.0337 0.9334
-14.3442 0.5262 -2.0338 0.9437
-14.2121 -2.0109 -2.0338 0.9437
-13.6348 -4.4850 -2.0337 0.9437
-13.1843 -5.6740 -2.0337 0.9437
-8.4875 -11.5749 -2.0337 0.9437
-7.4298 -12.2806 -2.0337 0.9437
-3.9424 -13.8013 -2.0337 0.9437
-1.4475 -14.2803 -2.0337 0.9437
-0.1780 -14.3524 -2.0337 0.9437
-12.3372 0.4526 -2.0338 0.9512
-12.3288 -0.6410 -2.0338 0.9512
-12.2236 -1.7296 -2.0338 0.9512
-12.0226 -2.8045 -2.0338 0.9512
-11.7272 -3.8575 -2.0338 0.9512
-10.8633 -5.8646 -2.0337 0.9512
-10.3017 -6.8029 -2.0337 0.9512
-9.6592 -7.6879 -2.0337 0.9512
-8.9409 -8.5125 -2.0337 0.9512
-8.1524 -9.2704 -2.0337 0.9512
-7.3001 -9.9555 -2.0337 0.9512
-6.3904 -10.5625 -2.0337 0.9512
-4.4281 -11.5237 -2.0337 0.9512
-2.3271 -12.1239 -2.0337 0.9512
-0.1532 -12.3444 -2.0338 0.9512
-10.8057 -0.5618 -2.0338 0.9569
-10.7136 -1.5159 -2.0338 0.9569
-10.5373 -2.4581 -2.0338 0.9569
-9.5213 -5.1401 -2.0338 0.9569
-9.0290 -5.9625 -2.0338 0.9569
-8.4659 -6.7382 -2.0338 0.9569
-7.1453 -8.1252 -2.0337 0.9569
-4.7597 -9.7170 -2.0338 0.9569
-2.9720 -10.4040 -2.0338 0.9569
-2.0396 -10.6262 -2.0338 0.9569
-1.0912 -10.7650 -2.0338 0.9569
-0.1343 -10.8194 -2.0338 0.9569
-9.6152 0.3527 -2.0338 0.9614
-9.3699 -2.1857 -2.0338 0.9614
-8.8378 -3.8034 -2.0338 0.9614
-8.4665 -4.5706 -2.0338 0.9614
-7.5280 -5.9917 -2.0338 0.9614
-5.6894 -7.7590 -2.0338 0.9614
-3.4511 -8.9812 -2.0338 0.9614
-2.6427 -9.2514 -2.0338 0.9614
-8.6420 -0.4493 -2.0338 0.9651
-8.4274 -1.9659 -2.0338 0.9651
-8.2203 -2.7040 -2.0338 0.9651
-7.9488 -3.4208 -2.0338 0.9651
-7.2211 -4.7686 -2.0338 0.9651
-6.7707 -5.3890 -2.0338 0.9651
-6.2673 -5.9670 -2.0338 0.9651
-5.7146 -6.4982 -2.0338 0.9651
-4.4794 -7.4039 -2.0338 0.9651
-3.8066 -7.7713 -2.0338 0.9651
-2.3769 -8.3207 -2.0338 0.9651
-1.6312 -8.4985 -2.0338 0.9651
-7.8445 -0.4079 -2.0338 0.9681
-7.6496 -1.7845 -2.0338 0.9681
-6.1459 -4.8916 -2.0338 0.9681
-5.6889 -5.4164 -2.0338 0.9681
-5.1873 -5.8986 -2.0338 0.9681
-4.6448 -6.3345 -2.0338 0.9681
-3.4554 -7.0542 -2.0338 0.9681
-2.8175 -7.3323 -2.0338 0.9681
-0.7922 -7.8150 -2.0338 0.9681
-7.1795 0.2634 -2.0338 0.9706
-7.1746 -0.3731 -2.0338 0.9706
-6.9964 -1.6321 -2.0338 0.9706
-6.8245 -2.2449 -2.0338 0.9706
-6.3219 -3.4129 -2.0338 0.9706
-5.9950 -3.9589 -2.0338 0.9706
-5.6211 -4.4739 -2.0338 0.9706
-5.2031 -4.9538 -2.0338 0.9706
-4.7443 -5.3949 -2.0338 0.9706
-3.7189 -6.1468 -2.0338 0.9706
-2.5770 -6.7062 -2.0338 0.9706
-1.3542 -7.0555 -2.0338 0.9706
-0.7245 -7.1477 -2.0338 0.9706
-6.6080 0.2424 -2.0338 0.9727
-6.6035 -0.3433 -2.0338 0.9727
-6.0738 -2.6139 -2.0338 0.9727
-5.8187 -3.1412 -2.0338 0.9727
-5.5178 -3.6438 -2.0338 0.9727
-3.4229 -5.6575 -2.0338 0.9727
-2.9087 -5.9382 -2.0338 0.9727
-1.8162 -6.3580 -2.0338 0.9727
-1.2464 -6.4938 -2.0338 0.9727
-0.6669 -6.5787 -2.0338 0.9727
-6.1145 0.2243 -2.0339 0.9745
-5.9586 -1.3900 -2.0338 0.9745
-5.1057 -3.3717 -2.0338 0.9745
-4.7873 -3.8102 -2.0338 0.9745
-4.0405 -4.5946 -2.0338 0.9745
-3.6181 -4.9341 -2.0338 0.9745
-3.1672 -5.2350 -2.0338 0.9745
-2.1946 -5.7114 -2.0338 0.9745
-1.1534 -6.0088 -2.0338 0.9745
-0.6171 -6.0873 -2.0338 0.9745
-5.6836 0.2085 -2.0339 0.9761
-5.6797 -0.2953 -2.0338 0.9761
-5.6313 -0.7968 -2.0338 0.9761
-5.5386 -1.2920 -2.0338 0.9761
-5.4026 -1.7771 -2.0338 0.9761
-5.0046 -2.7018 -2.0338 0.9761
-4.7459 -3.1341 -2.0338 0.9761
-4.1190 -3.9217 -2.0338 0.9761
-3.7558 -4.2708 -2.0338 0.9761
-2.0400 -5.3089 -2.0338 0.9761
-1.0721 -5.5854 -2.0338 0.9761
-5.3037 0.1946 -2.0339 0.9775
-5.2549 -0.7435 -2.0338 0.9775
-5.1685 -1.2057 -2.0338 0.9775
-4.8749 -2.0980 -2.0338 0.9775
-4.6702 -2.5212 -2.0338 0.9775
-4.1525 -3.3051 -2.0338 0.9775
-3.8438 -3.6596 -2.0338 0.9775
-3.5048 -3.9854 -2.0338 0.9775
-3.1383 -4.2799 -2.0338 0.9775
-0.5352 -5.2802 -2.0338 0.9775
-2.1227 0.0778 -0.8694 0.9909
-2.1111 -0.2987 -0.8726 0.9908
-2.1189 -0.4943 -0.8905 0.9906
-4.5646 -1.9644 -2.0338 0.9788
-4.3728 -2.3607 -2.0338 0.9788
-3.5990 -3.4266 -2.0338 0.9788
-3.2816 -3.7317 -2.0338 0.9788
-1.7824 -4.6387 -2.0338 0.9788
-0.9368 -4.8803 -2.0338 0.9788
-1.9187 0.0704 -0.8368 0.9917
-1.9030 -0.2693 -0.8377 0.9916
-4.4330 -1.4582 -2.0338 0.9798
-4.2866 -1.8448 -2.0338 0.9798
-3.6513 -2.9062 -2.0338 0.9798
-3.3799 -3.2179 -2.0338 0.9798
-3.0818 -3.5044 -2.0338 0.9798
-2.7596 -3.7634 -2.0338 0.9798
-2.4157 -3.9928 -2.0338 0.9798
-1.6739 -4.3562 -2.0338 0.9798
-1.2818 -4.4872 -2.0338 0.9798
-0.8797 -4.5831 -2.0338 0.9798
-0.4706 -4.6430 -2.0338 0.9798
-0.0579 -4.6664 -2.0338 0.9798
-1.5863 0.0582 -0.7348 0.9930
-1.5933 -0.0829 -0.7385 0.9930
-1.5851 -0.3698 -0.7534 0.9929
-1.6360 -0.5382 -0.7972 0.9924
-4.0360 -1.7369 -2.0338 0.9808
-3.8664 -2.0873 -2.0338 0.9808
-3.6665 -2.4213 -2.0338 0.9808
-3.4379 -2.7363 -2.0338 0.9808
-3.1823 -3.0298 -2.0338 0.9808
-1.9328 -3.9459 -2.0338 0.9808
-0.8282 -4.3151 -2.0338 0.9808
-0.4431 -4.3715 -2.0338 0.9808
-0.0545 -4.3936 -2.0339 0.9808
-1.3496 -0.1910 -0.6686 0.9939
-1.2821 -0.4218 -0.6621 0.9940
-3.8086 -1.6391 -2.0338 0.9817
-3.4599 -2.2848 -2.0338 0.9817
-2.7381 -3.1136 -2.0338 0.9817
-1.8239 -3.7236 -2.0338 0.9817
-1.4872 -3.8704 -2.0338 0.9817
-0.4182 -4.1252 -2.0339 0.9817
-1.1975 0.0439 -0.6217 0.9946
-1.1959 -0.1693 -0.6266 0.9946
-1.1710 -0.2732 -0.6238 0.9946
-3.2714 -2.1604 -2.0338 0.9825
-3.0675 -2.4414 -2.0338 0.9825
-2.8393 -2.7033 -2.0338 0.9825
-2.5890 -2.9440 -2.0338 0.9825
-2.3183 -3.1616 -2.0338 0.9825
-2.0294 -3.3543 -2.0338 0.9825
-1.7246 -3.5208 -2.0338 0.9825
-1.4062 -3.6596 -2.0338 0.9825
-0.7390 -3.8502 -2.0339 0.9825
-0.3954 -3.9005 -2.0339 0.9825
-0.0487 -3.9202 -2.0339 0.9825
-1.0814 -0.0562 -0.5931 0.9951
-1.0496 -0.2449 -0.5903 0.9951
-1.0037 -0.4320 -0.5985 0.9950
-3.2677 -1.7641 -2.0339 0.9832
-3.0987 -2.0463 -2.0339 0.9832
-2.6894 -2.5606 -2.0338 0.9832
-2.4522 -2.7885 -2.0338 0.9832
-2.1959 -2.9946 -2.0338 0.9832
-1.6335 -3.3348 -2.0338 0.9832
-1.0200 -3.5706 -2.0339 0.9832
-0.3745 -3.6945 -2.0339 0.9832
-0.9309 -0.4006 -0.5851 0.9953
-0.9016 -0.4868 -0.5916 0.9953
-2.9396 -1.9412 -2.0339 0.9839
-1.8235 -3.0141 -2.0339 0.9839
-1.5496 -3.1636 -2.0339 0.9839
-1.2636 -3.2884 -2.0339 0.9839
-0.9676 -3.3873 -2.0339 0.9839
-0.6641 -3.4596 -2.0339 0.9839
-0.0437 -3.5225 -2.0339 0.9839
