ply
format ascii 1.0
element vertex 175
property float32 x
property float32 y
property float32 z
property float32 I
end_header
13.6832 9.3659 -0.8409 0.9357
16.5634 -3.5314 -1.2418 0.9343
16.3712 -3.4903 -1.6070 0.9349
13.2034 9.0375 -1.5361 0.9377
15.8364 -6.5118 -2.0340 0.9334
16.7469 -3.5705 -2.0340 0.9334
17.0003 -2.0503 -2.0340 0.9333
17.1160 -0.5135 -2.0340 0.9333
17.0929 1.0275 -2.0341 0.9333
14.9434 8.3627 -2.0341 0.9333
13.3339 9.1268 -1.9194 0.9370
13.2042 10.9038 -2.0341 0.9333
12.1704 12.0469 -2.0341 0.9333
13.7136 -4.2434 -2.0340 0.9437
14.0397 -2.9933 -2.0340 0.9437
14.2521 -1.7189 -2.0340 0.9437
14.3297 0.8614 -2.0340 0.9437
14.1943 2.1463 -2.0340 0.9437
13.9439 3.4139 -2.0341 0.9437
12.5277 7.0108 -2.0341 0.9437
11.8466 8.1088 -2.0341 0.9437
10.2029 10.0994 -2.0341 0.9437
9.2535 10.9758 -2.0341 0.9437
8.2293 11.7634 -2.0341 0.9437
10.9503 -5.7030 -2.0339 0.9512
11.7948 -3.6497 -2.0340 0.9512
12.2579 -1.4784 -2.0340 0.9512
12.3413 -0.3702 -2.0340 0.9512
12.3246 0.7409 -2.0340 0.9512
12.2082 1.8460 -2.0340 0.9512
11.6803 4.0026 -2.0340 0.9512
10.7747 6.0297 -2.0341 0.9512
10.1889 6.9742 -2.0341 0.9512
8.7752 8.6862 -2.0341 0.9512
10.0080 -4.1153 -2.0339 0.9569
10.3376 -3.1988 -2.0340 0.9569
10.5834 -2.2564 -2.0340 0.9569
10.7435 -1.2957 -2.0340 0.9569
10.8165 -0.3245 -2.0340 0.9569
10.8020 0.6493 -2.0340 0.9569
10.6998 1.6179 -2.0340 0.9569
10.5111 2.5734 -2.0340 0.9569
9.8804 4.4143 -2.0340 0.9569
8.3443 6.8906 -2.0340 0.9569
6.2032 8.8673 -2.0341 0.9569
8.5341 -4.4446 -2.0339 0.9614
9.4108 -2.0064 -2.0340 0.9614
9.5532 -1.1521 -2.0340 0.9614
9.6181 -0.2885 -2.0340 0.9614
9.5143 1.4387 -2.0340 0.9614
9.1029 3.1194 -2.0340 0.9614
8.3971 4.6992 -2.0340 0.9614
7.4198 6.1271 -2.0340 0.9614
6.8389 6.7694 -2.0340 0.9614
6.2025 7.3569 -2.0340 0.9614
7.6755 -3.9975 -2.0339 0.9651
7.9018 3.5303 -2.0340 0.9651
7.5524 4.2264 -2.0340 0.9651
7.1418 4.8884 -2.0340 0.9651
4.9610 7.0915 -2.0340 0.9651
6.9672 -3.6286 -2.0339 0.9681
7.6829 -1.6380 -2.0339 0.9681
7.8415 0.4714 -2.0340 0.9681
7.4315 2.5466 -2.0340 0.9681
6.8553 3.8364 -2.0340 0.9681
6.4827 4.4372 -2.0340 0.9681
6.0574 5.0021 -2.0340 0.9681
5.5831 5.5265 -2.0340 0.9681
6.3722 -3.3187 -2.0339 0.9706
7.1816 -0.2154 -2.0340 0.9706
7.1718 0.4311 -2.0340 0.9706
7.1041 1.0742 -2.0340 0.9706
6.9787 1.7086 -2.0340 0.9706
5.9290 4.0583 -2.0340 0.9706
5.1063 5.0545 -2.0340 0.9706
4.6312 5.4932 -2.0340 0.9706
6.1159 -2.5148 -2.0339 0.9727
6.4674 -1.3789 -2.0339 0.9727
6.5652 -0.7918 -2.0339 0.9727
6.6098 -0.1983 -2.0340 0.9727
6.6009 0.3968 -2.0340 0.9727
6.0377 2.6975 -2.0340 0.9727
5.4570 3.7352 -2.0340 0.9727
5.0991 4.2107 -2.0340 0.9727
5.6591 -2.3270 -2.0339 0.9745
5.9844 -1.2759 -2.0339 0.9745
6.0748 -0.7326 -2.0339 0.9745
6.1161 -0.1835 -2.0340 0.9745
6.0502 0.9149 -2.0340 0.9745
5.9434 1.4551 -2.0340 0.9745
5.7885 1.9836 -2.0340 0.9745
5.5868 2.4960 -2.0340 0.9745
5.3397 2.9882 -2.0340 0.9745
5.0494 3.4562 -2.0340 0.9745
4.3488 4.3046 -2.0340 0.9745
3.9441 4.6782 -2.0340 0.9745
3.5075 5.0139 -2.0340 0.9745
5.0445 -2.6272 -2.0339 0.9761
5.2603 -2.1630 -2.0339 0.9761
5.4334 -1.6813 -2.0339 0.9761
5.5626 -1.1860 -2.0339 0.9761
5.6851 -0.1706 -2.0339 0.9761
5.6237 0.8504 -2.0340 0.9761
5.1930 2.3201 -2.0340 0.9761
4.9634 2.7776 -2.0340 0.9761
4.6936 3.2126 -2.0340 0.9761
4.0423 4.0013 -2.0340 0.9761
4.7073 -2.4516 -2.0339 0.9775
5.1909 -1.1067 -2.0339 0.9775
5.2693 -0.6355 -2.0339 0.9775
5.3052 -0.1592 -2.0339 0.9775
5.2980 0.3185 -2.0339 0.9775
5.1553 1.2622 -2.0340 0.9775
4.6317 2.5920 -2.0340 0.9775
3.7721 3.7339 -2.0340 0.9775
3.4211 4.0579 -2.0340 0.9775
3.0425 4.3491 -2.0340 0.9775
4.7475 -1.4691 -2.0339 0.9788
4.8604 -1.0363 -2.0339 0.9788
4.9339 -0.5951 -2.0339 0.9787
4.9607 0.2982 -2.0339 0.9788
4.9138 0.7430 -2.0340 0.9787
4.8271 1.1818 -2.0340 0.9787
4.1010 2.8071 -2.0340 0.9787
3.2033 3.7995 -2.0340 0.9787
2.8487 4.0721 -2.0340 0.9787
4.1392 -2.1557 -2.0339 0.9798
4.3163 -1.7748 -2.0339 0.9798
4.5644 -0.9731 -2.0339 0.9798
4.6586 0.2800 -2.0339 0.9798
4.6145 0.6977 -2.0339 0.9798
4.5331 1.1098 -2.0340 0.9798
4.2611 1.9037 -2.0340 0.9798
3.8512 2.6361 -2.0340 0.9798
3.3169 3.2832 -2.0340 0.9798
3.8971 -2.0296 -2.0339 0.9808
4.0639 -1.6710 -2.0339 0.9808
4.1977 -1.2989 -2.0339 0.9808
4.3921 -0.1318 -2.0339 0.9808
4.3446 0.6569 -2.0339 0.9808
4.1568 1.4244 -2.0340 0.9808
3.8345 2.1459 -2.0340 0.9808
3.6261 2.4819 -2.0340 0.9808
2.8323 3.3595 -2.0340 0.9808
3.8349 -1.5769 -2.0339 0.9817
4.1446 -0.1244 -2.0339 0.9817
4.1390 0.2488 -2.0339 0.9817
3.9226 1.3442 -2.0339 0.9817
3.7858 1.6914 -2.0340 0.9817
3.4217 2.3421 -2.0340 0.9817
3.1973 2.6403 -2.0340 0.9817
2.9469 2.9170 -2.0340 0.9817
3.4773 -1.8110 -2.0339 0.9825
3.6261 -1.4910 -2.0339 0.9825
2.0762 -0.0623 -1.0776 0.9907
3.8082 0.9323 -2.0339 0.9825
3.7089 1.2710 -2.0339 0.9825
3.5796 1.5993 -2.0339 0.9825
3.0232 2.4964 -2.0340 0.9825
2.7864 2.7581 -2.0340 0.9825
2.5271 2.9975 -2.0340 0.9825
2.2475 3.2126 -2.0340 0.9825
3.4345 -1.4123 -2.0339 0.9832
1.8792 -0.5815 -1.0774 0.9911
1.8459 -0.2226 -1.0183 0.9916
1.8485 0.2795 -1.0240 0.9915
1.8575 0.4547 -1.0474 0.9913
3.0645 2.0976 -2.0340 0.9832
2.1287 3.0429 -2.0340 0.9832
1.7580 -0.7229 -1.0974 0.9913
1.7193 -0.5320 -1.0390 0.9917
1.7148 -0.3656 -1.0123 0.9919
1.7169 -0.2071 -0.9984 0.9920
1.7262 0.5915 -1.0535 0.9916
2.7164 2.2432 -2.0339 0.9839
