ply
format ascii 1.0
element vertex 209
property float32 x
property float32 y
property float32 z
property float32 I
end_header
-12.9407 -8.0854 -1.1188 0.9406
-12.5511 -7.8420 -1.4208 0.9423
-16.6667 3.9204 -2.0338 0.9334
-17.0948 0.9511 -2.0338 0.9334
-16.7533 -3.5285 -2.0337 0.9334
-15.8801 -6.3983 -2.0337 0.9334
-15.2584 -7.7649 -2.0337 0.9334
-11.3101 -8.5300 -1.6827 0.9445
-12.7131 -11.4667 -2.0337 0.9334
-11.6596 -12.5364 -2.0337 0.9334
-10.5165 -13.5096 -2.0337 0.9334
-9.2926 -14.3790 -2.0337 0.9334
-13.9727 3.2866 -2.0338 0.9437
-14.2068 2.0499 -2.0338 0.9437
-13.7322 -4.1772 -2.0337 0.9437
-12.1727 -7.6055 -2.0337 0.9437
-11.4596 -8.6427 -2.0337 0.9437
-10.6583 -9.6134 -2.0337 0.9437
-8.8167 -11.3261 -2.0337 0.9437
-6.7046 -12.6911 -2.0337 0.9437
-5.5670 -13.2297 -2.0337 0.9437
-11.7239 3.8688 -2.0338 0.9512
-12.2191 1.7631 -2.0338 0.9512
-12.3391 -0.3967 -2.0338 0.9512
-11.8110 -3.5928 -2.0338 0.9512
-11.4508 -4.6137 -2.0338 0.9512
-11.0025 -5.5991 -2.0337 0.9512
-10.4696 -6.5415 -2.0337 0.9512
-9.8563 -7.4335 -2.0337 0.9512
-9.1671 -8.2684 -2.0337 0.9512
-7.5833 -9.7415 -2.0337 0.9512
-5.7665 -10.9156 -2.0337 0.9512
-10.2756 3.3908 -2.0339 0.9569
-10.8037 0.6011 -2.0338 0.9569
-10.8148 -0.3477 -2.0338 0.9569
-10.7427 -1.2938 -2.0338 0.9569
-10.3519 -3.1490 -2.0338 0.9569
-10.0362 -4.0437 -2.0338 0.9569
-9.6433 -4.9074 -2.0338 0.9569
-9.1762 -5.7333 -2.0338 0.9569
-8.6387 -6.5152 -2.0338 0.9569
-8.0347 -7.2470 -2.0338 0.9569
-5.8729 -9.0875 -2.0337 0.9569
-9.1371 3.0152 -2.0339 0.9614
-9.3661 2.2031 -2.0338 0.9614
-9.5231 1.3741 -2.0338 0.9614
-9.6068 0.5345 -2.0338 0.9614
-9.5525 -1.1505 -2.0338 0.9614
-9.2050 -2.8001 -2.0338 0.9614
-8.9243 -3.5957 -2.0338 0.9614
-8.5750 -4.3637 -2.0338 0.9614
-8.1597 -5.0982 -2.0338 0.9614
-7.6817 -5.7935 -2.0338 0.9614
-5.9101 -7.5922 -2.0338 0.9614
-3.7317 -8.8682 -2.0338 0.9614
-8.2180 2.7119 -2.0339 0.9651
-8.4239 1.9814 -2.0339 0.9651
-8.5651 1.2358 -2.0338 0.9651
-8.5916 -1.0347 -2.0338 0.9651
-4.6969 -7.2679 -2.0338 0.9651
-4.0421 -7.6514 -2.0338 0.9651
-3.3563 -7.9762 -2.0338 0.9651
-7.4596 2.4616 -2.0339 0.9681
-7.6465 1.7986 -2.0339 0.9681
-7.8430 0.4363 -2.0338 0.9681
-7.7987 -0.9393 -2.0338 0.9681
-7.6864 -1.6189 -2.0338 0.9681
-7.2859 -2.9356 -2.0338 0.9681
-7.0007 -3.5626 -2.0338 0.9681
-6.6616 -4.1622 -2.0338 0.9681
-6.2713 -4.7298 -2.0338 0.9681
-5.8329 -5.2610 -2.0338 0.9681
-3.6691 -6.9454 -2.0338 0.9681
-6.8225 2.2514 -2.0339 0.9706
-6.9936 1.6450 -2.0339 0.9706
-7.1732 0.3991 -2.0338 0.9706
-7.1806 -0.2309 -2.0338 0.9706
-7.1327 -0.8590 -2.0338 0.9706
-7.0300 -1.4806 -2.0338 0.9706
-6.6637 -2.6849 -2.0338 0.9706
-6.4029 -3.2584 -2.0338 0.9706
-6.0927 -3.8068 -2.0338 0.9706
-3.8995 -6.0339 -2.0338 0.9706
-3.3559 -6.3523 -2.0338 0.9706
-2.7864 -6.6219 -2.0338 0.9706
-6.2795 2.0721 -2.0339 0.9727
-6.4368 1.5140 -2.0339 0.9727
-6.6022 0.3673 -2.0338 0.9727
-6.6090 -0.2125 -2.0338 0.9727
-6.5650 -0.7907 -2.0338 0.9727
-6.3262 -1.9244 -2.0338 0.9727
-6.1332 -2.4712 -2.0338 0.9727
-5.8931 -2.9990 -2.0338 0.9727
-5.6078 -3.5038 -2.0338 0.9727
-4.9101 -4.4287 -2.0338 0.9727
-4.5033 -4.8419 -2.0338 0.9727
-3.5890 -5.5535 -2.0338 0.9727
-5.9561 1.4010 -2.0339 0.9745
-6.1154 -0.1966 -2.0338 0.9745
-5.9871 -1.2610 -2.0338 0.9745
-5.8537 -1.7807 -2.0338 0.9745
-5.4530 -2.7750 -2.0338 0.9745
-5.1889 -3.2421 -2.0338 0.9745
-4.8849 -3.6842 -2.0338 0.9745
-4.1669 -4.4802 -2.0338 0.9745
-3.7584 -4.8281 -2.0338 0.9745
-3.3210 -5.1388 -2.0338 0.9745
-2.3731 -5.6396 -2.0338 0.9745
-5.4010 1.7822 -2.0339 0.9761
-5.6465 -0.6801 -2.0338 0.9761
-5.4411 -1.6552 -2.0338 0.9761
-5.2752 -2.1255 -2.0338 0.9761
-4.8233 -3.0136 -2.0338 0.9761
-4.5407 -3.4246 -2.0338 0.9761
-2.6566 -5.0287 -2.0338 0.9761
-2.2059 -5.2421 -2.0338 0.9761
-5.0400 1.6632 -2.0339 0.9775
-5.2529 0.7579 -2.0339 0.9775
-5.2991 0.2948 -2.0339 0.9775
-5.2692 -0.6346 -2.0338 0.9775
-5.1933 -1.0938 -2.0338 0.9775
-4.9227 -1.9834 -2.0338 0.9775
-4.7300 -2.4071 -2.0338 0.9775
-4.5009 -2.8122 -2.0338 0.9775
-3.9410 -3.5546 -2.0338 0.9775
-3.6145 -3.8862 -2.0338 0.9775
-2.4791 -4.6926 -2.0338 0.9775
-2.0584 -4.8918 -2.0338 0.9775
-2.1118 0.3047 -0.8733 0.9908
-2.1227 -0.0683 -0.8692 0.9909
-2.1213 -0.4468 -0.8873 0.9907
-4.7543 -1.4462 -2.0338 0.9788
-4.6093 -1.8572 -2.0338 0.9788
-4.4288 -2.2538 -2.0338 0.9788
-4.2144 -2.6332 -2.0338 0.9788
-3.9675 -2.9922 -2.0338 0.9788
-3.6902 -3.3283 -2.0338 0.9788
-3.3843 -3.6388 -2.0338 0.9788
-2.6973 -4.1736 -2.0338 0.9788
-2.3212 -4.3939 -2.0338 0.9788
-1.9274 -4.5804 -2.0338 0.9788
-4.4318 1.4624 -2.0339 0.9798
-1.9006 0.4470 -0.8509 0.9915
-1.9176 0.1067 -0.8370 0.9917
-1.9037 -0.4010 -0.8479 0.9915
-2.0704 -0.6298 -0.9432 0.9906
-3.9577 -2.4728 -2.0338 0.9798
-2.8666 -3.6825 -2.0338 0.9798
-2.5330 -3.9195 -2.0338 0.9798
-2.1799 -4.1263 -2.0338 0.9798
-1.8100 -4.3014 -2.0338 0.9798
-1.6106 0.2324 -0.7533 0.9929
-1.5840 -0.0510 -0.7336 0.9930
-1.6096 -0.1939 -0.7505 0.9929
-1.5962 -0.3362 -0.7551 0.9928
-1.5361 -0.4673 -0.7432 0.9929
-4.0754 -1.6421 -2.0338 0.9808
-3.9159 -1.9928 -2.0338 0.9808
-3.7263 -2.3282 -2.0338 0.9808
-3.2627 -2.9429 -2.0338 0.9808
-2.9924 -3.2174 -2.0338 0.9808
-2.0524 -3.8850 -2.0338 0.9808
-1.7042 -4.0499 -2.0338 0.9808
-1.2816 0.4229 -0.6620 0.9940
-1.3502 0.0751 -0.6633 0.9940
-1.3453 -0.0433 -0.6602 0.9940
-1.3311 -0.2804 -0.6672 0.9940
-1.2942 -0.3937 -0.6636 0.9940
-1.7346 -0.6990 -0.9174 0.9917
-3.6953 -1.8805 -2.0338 0.9817
-3.0789 -2.7771 -2.0338 0.9817
-2.8238 -3.0361 -2.0338 0.9817
-2.2505 -3.4824 -2.0338 0.9817
-1.9368 -3.6662 -2.0338 0.9817
-1.1395 0.3760 -0.6225 0.9946
-1.1705 0.2753 -0.6238 0.9946
-1.1991 -0.1445 -0.6266 0.9946
-1.1473 -0.3490 -0.6221 0.9946
-1.1202 -0.4514 -0.6265 0.9946
-3.4940 -1.7781 -2.0339 0.9825
-3.3248 -2.0774 -2.0338 0.9825
-2.6700 -2.8708 -2.0338 0.9825
-2.4082 -3.0936 -2.0338 0.9825
-1.8313 -3.4665 -2.0338 0.9825
-1.5205 -3.6136 -2.0338 0.9825
-1.0489 0.2467 -0.5902 0.9951
-1.0730 0.1548 -0.5938 0.9951
-1.0814 0.0601 -0.5932 0.9951
-1.0768 -0.1297 -0.5941 0.9951
-1.0569 -0.2226 -0.5916 0.9951
-0.9801 -0.4988 -0.6023 0.9950
-3.1492 -1.9677 -2.0339 0.9832
-2.7575 -2.4871 -2.0338 0.9832
-2.5289 -2.7191 -2.0338 0.9832
-2.2811 -2.9303 -2.0338 0.9832
-2.0155 -3.1188 -2.0338 0.9832
-1.4403 -3.4227 -2.0338 0.9832
-0.9518 0.3141 -0.5787 0.9954
-0.9674 0.2275 -0.5738 0.9954
-0.9837 0.1419 -0.5738 0.9954
-0.9900 0.0550 -0.5724 0.9954
-0.9863 -0.1188 -0.5736 0.9954
-0.9556 -0.2907 -0.5767 0.9954
-0.9103 -0.4633 -0.5897 0.9953
-2.9875 -1.8666 -2.0339 0.9839
-2.8125 -2.1212 -2.0339 0.9839
-2.1639 -2.7798 -2.0339 0.9839
-1.6455 -3.1148 -2.0339 0.9839
-1.3663 -3.2470 -2.0339 0.9839
