ply
format ascii 1.0
element vertex 186
property float32 x
property float32 y
property float32 z
property float32 I
end_header
-6.0583 -16.0127 -2.0337 0.9334
-4.6005 -16.4909 -2.0337 0.9334
-1.5860 -17.0471 -2.0337 0.9334
-0.0535 -17.1207 -2.0337 0.9334
1.4794 -17.0569 -2.0337 0.9334
3.0005 -16.8561 -2.0337 0.9334
1.7730 -6.5128 -0.8018 0.9732
2.8001 -5.8700 -0.7725 0.9741
10.0094 -13.8914 -2.0338 0.9334
14.2484 -9.4956 -2.0339 0.9334
-5.0791 -13.4246 -2.0337 0.9437
-3.8570 -13.8255 -2.0337 0.9437
-2.6037 -14.1153 -2.0337 0.9437
-1.3296 -14.2917 -2.0337 0.9437
-0.0448 -14.3534 -2.0337 0.9437
1.2403 -14.2999 -2.0338 0.9437
1.7065 -6.2682 -0.9205 0.9741
2.2900 -6.1690 -0.9324 0.9738
8.3914 -11.6460 -2.0338 0.9437
9.4004 -10.8481 -2.0339 0.9437
11.1845 -8.9980 -2.0339 0.9437
12.6100 -6.8594 -2.0339 0.9437
-4.3685 -11.5464 -2.0337 0.9512
-3.3173 -11.8912 -2.0337 0.9512
-2.2395 -12.1404 -2.0337 0.9512
-1.1436 -12.2922 -2.0338 0.9512
-0.0386 -12.3453 -2.0338 0.9512
1.0668 -12.2992 -2.0338 0.9512
2.2350 -6.0207 -1.0580 0.9743
2.7914 -5.8519 -1.0681 0.9741
8.8880 -8.5690 -2.0339 0.9512
9.6195 -7.7390 -2.0339 0.9512
10.2738 -6.8468 -2.0339 0.9512
-3.8288 -10.1200 -2.0338 0.9569
-1.9628 -10.6407 -2.0338 0.9569
-1.0023 -10.7737 -2.0338 0.9569
-0.0338 -10.8202 -2.0338 0.9569
0.9350 -10.7798 -2.0338 0.9569
1.8963 -10.6529 -2.0338 0.9569
1.6455 -6.0443 -1.1774 0.9748
2.7181 -5.6982 -1.1867 0.9746
6.3257 -8.7791 -2.0339 0.9569
9.5057 -5.1707 -2.0339 0.9569
-3.4047 -8.9989 -2.0338 0.9614
-2.5854 -9.2676 -2.0338 0.9614
-0.8913 -9.5802 -2.0338 0.9614
-0.0300 -9.6215 -2.0338 0.9614
0.8314 -9.5855 -2.0338 0.9614
1.6862 -9.4727 -2.0338 0.9614
2.1738 -5.8560 -1.3204 0.9748
2.7429 -5.7500 -1.3466 0.9743
5.6248 -7.8065 -2.0339 0.9614
6.3012 -7.2716 -2.0339 0.9614
6.9269 -6.6783 -2.0339 0.9614
8.0069 -5.3361 -2.0339 0.9614
8.4525 -4.5979 -2.0339 0.9614
-2.3254 -8.3353 -2.0338 0.9651
-0.8016 -8.6164 -2.0338 0.9651
0.7478 -8.6213 -2.0338 0.9651
1.5166 -8.5198 -2.0338 0.9651
2.1449 -5.7782 -1.4486 0.9750
5.0590 -7.0211 -2.0339 0.9651
5.6673 -6.5401 -2.0339 0.9651
6.2301 -6.0065 -2.0339 0.9651
7.6022 -4.1353 -2.0339 0.9651
-2.7796 -7.3468 -2.0338 0.9681
-2.1108 -7.5661 -2.0338 0.9681
-1.4249 -7.7247 -2.0338 0.9681
-0.7277 -7.8213 -2.0338 0.9681
-0.0245 -7.8550 -2.0338 0.9681
0.6787 -7.8257 -2.0338 0.9681
2.1820 -5.8781 -1.6234 0.9744
2.6742 -5.6061 -1.6082 0.9747
4.5921 -6.3732 -2.0339 0.9681
5.1443 -5.9365 -2.0339 0.9681
6.1205 -4.9240 -2.0339 0.9681
6.9005 -3.7537 -2.0339 0.9681
-2.5423 -6.7194 -2.0338 0.9706
-1.3032 -7.0651 -2.0338 0.9706
-0.6655 -7.1534 -2.0338 0.9706
0.6208 -7.1575 -2.0338 0.9706
1.2591 -7.0731 -2.0338 0.9706
2.1996 -5.9254 -1.7893 0.9741
3.6613 -6.1815 -2.0339 0.9706
4.2000 -5.8290 -2.0339 0.9706
4.7050 -5.4296 -2.0339 0.9706
5.1722 -4.9866 -2.0339 0.9706
5.9786 -3.9843 -2.0339 0.9706
-1.1995 -6.5027 -2.0338 0.9727
-0.6126 -6.5839 -2.0338 0.9727
-0.0207 -6.6124 -2.0338 0.9727
1.7370 -6.3802 -2.0338 0.9727
3.8657 -5.3649 -2.0339 0.9727
4.7605 -4.5896 -2.0339 0.9727
5.1523 -4.1451 -2.0339 0.9727
-1.6441 -5.8935 -2.0338 0.9745
-1.1099 -6.0170 -2.0338 0.9745
-0.0191 -6.1185 -2.0338 0.9745
2.6343 -5.5225 -2.0339 0.9745
3.5770 -4.9642 -2.0339 0.9745
4.0070 -4.6241 -2.0339 0.9745
4.4048 -4.2469 -2.0339 0.9745
4.7674 -3.8354 -2.0339 0.9745
5.3750 -2.9238 -2.0339 0.9745
-2.0126 -5.3194 -2.0338 0.9761
-0.5269 -5.6629 -2.0338 0.9761
-0.0177 -5.6873 -2.0338 0.9761
0.9967 -5.5994 -2.0338 0.9761
2.4487 -5.1333 -2.0339 0.9761
2.8984 -4.8935 -2.0339 0.9761
3.3249 -4.6144 -2.0339 0.9761
3.7246 -4.2982 -2.0339 0.9761
4.0945 -3.9476 -2.0339 0.9761
4.4314 -3.5651 -2.0339 0.9761
4.9962 -2.7178 -2.0339 0.9761
-1.8780 -4.9638 -2.0338 0.9775
-0.4916 -5.2845 -2.0338 0.9775
-0.0166 -5.3073 -2.0338 0.9775
0.4586 -5.2874 -2.0338 0.9775
0.9301 -5.2252 -2.0338 0.9775
1.8470 -4.9756 -2.0339 0.9775
2.2850 -4.7903 -2.0339 0.9775
2.7047 -4.5665 -2.0339 0.9775
3.4757 -4.0110 -2.0339 0.9775
4.1353 -3.3269 -2.0339 0.9775
4.4165 -2.9433 -2.0339 0.9775
4.6624 -2.5362 -2.0339 0.9775
-1.7585 -4.6478 -2.0338 0.9788
-1.3354 -4.7866 -2.0338 0.9788
2.5325 -4.2757 -2.0339 0.9788
2.9051 -4.0319 -2.0339 0.9788
3.2545 -3.7556 -2.0339 0.9788
-1.6514 -4.3648 -2.0338 0.9798
-1.2540 -4.4951 -2.0338 0.9798
-0.8466 -4.5893 -2.0338 0.9798
-0.4323 -4.6467 -2.0338 0.9798
1.2259 -4.5029 -2.0339 0.9798
2.3782 -4.0153 -2.0339 0.9798
2.7282 -3.7863 -2.0339 0.9798
3.3597 -3.2391 -2.0339 0.9798
3.6362 -2.9254 -2.0339 0.9798
3.8835 -2.5881 -2.0339 0.9798
-1.1807 -4.2323 -2.0338 0.9808
-0.4070 -4.3750 -2.0338 0.9808
0.7700 -4.3259 -2.0339 0.9808
3.4236 -2.7543 -2.0339 0.9808
3.6564 -2.4368 -2.0339 0.9808
-1.4673 -3.8780 -2.0338 0.9817
-1.1142 -3.9938 -2.0338 0.9817
-0.7521 -4.0775 -2.0338 0.9817
-0.3841 -4.1285 -2.0339 0.9817
1.0892 -4.0007 -2.0339 0.9817
1.4430 -3.8872 -2.0339 0.9817
2.1130 -3.5675 -2.0339 0.9817
2.4239 -3.3640 -2.0339 0.9817
2.7154 -3.1336 -2.0339 0.9817
2.9850 -2.8779 -2.0339 0.9817
3.2307 -2.5991 -2.0339 0.9817
3.4504 -2.2995 -2.0339 0.9817
-1.0535 -3.7763 -2.0338 0.9825
-0.7112 -3.8554 -2.0339 0.9825
-0.3632 -3.9036 -2.0339 0.9825
-0.0123 -3.9205 -2.0339 0.9825
1.0298 -3.7828 -2.0339 0.9825
1.3644 -3.6754 -2.0339 0.9825
1.9979 -3.3732 -2.0339 0.9825
2.2919 -3.1808 -2.0339 0.9825
2.5675 -2.9629 -2.0339 0.9825
3.4440 -1.8734 -2.0339 0.9825
-0.3440 -3.6975 -2.0339 0.9832
0.9755 -3.5830 -2.0339 0.9832
1.8925 -3.1951 -2.0339 0.9832
2.1709 -3.0129 -2.0339 0.9832
2.4319 -2.8064 -2.0339 0.9832
2.8934 -2.3277 -2.0339 0.9832
3.0902 -2.0594 -2.0339 0.9832
-0.6390 -3.4643 -2.0339 0.9839
-0.3263 -3.5076 -2.0339 0.9839
-0.0110 -3.5228 -2.0339 0.9839
0.3044 -3.5096 -2.0339 0.9839
0.9254 -3.3991 -2.0339 0.9839
1.2260 -3.3026 -2.0339 0.9839
1.5167 -3.1796 -2.0339 0.9839
1.7952 -3.0310 -2.0339 0.9839
2.3070 -2.6623 -2.0339 0.9839
2.7448 -2.2082 -2.0339 0.9839
