ply
format ascii 1.0
element vertex 229
property float32 x
property float32 y
property float32 z
property float32 I
end_header
2.4492 -6.1971 -0.6397 0.9736
-12.0705 -12.1413 -2.0337 0.9334
-9.7260 -14.0895 -2.0337 0.9334
-8.4330 -14.8993 -2.0337 0.9334
-5.6572 -16.1588 -2.0337 0.9334
-4.1962 -16.5984 -2.0337 0.9334
-2.7020 -16.9061 -2.0337 0.9334
0.3390 -17.1175 -2.0337 0.9334
1.8615 -17.0195 -2.0337 0.9334
1.8401 -6.2294 -0.7716 0.9742
11.4556 -12.7254 -2.0339 0.9334
12.5431 -11.6551 -2.0339 0.9334
14.4115 -9.2462 -2.0339 0.9334
15.1776 -7.9266 -2.0339 0.9334
15.8231 -6.5440 -2.0340 0.9334
-9.1732 -11.0394 -2.0337 0.9437
-8.1540 -11.8121 -2.0337 0.9437
-3.5180 -13.9156 -2.0337 0.9437
-0.9944 -14.3190 -2.0337 0.9437
0.2843 -14.3508 -2.0337 0.9437
1.8521 -6.2698 -0.9263 0.9739
2.4169 -6.1154 -0.9317 0.9738
3.0085 -5.9891 -0.9496 0.9733
7.5596 -12.2022 -2.0338 0.9437
10.5156 -9.7711 -2.0339 0.9437
12.0819 -7.7516 -2.0339 0.9437
13.2653 -5.4862 -2.0340 0.9437
-8.7037 -8.7549 -2.0337 0.9512
-7.8898 -9.4950 -2.0337 0.9512
-6.0809 -10.7436 -2.0337 0.9512
-4.0793 -11.6518 -2.0337 0.9512
-3.0258 -11.9687 -2.0337 0.9512
-1.9483 -12.1905 -2.0337 0.9512
-0.8553 -12.3157 -2.0338 0.9512
0.2445 -12.3430 -2.0338 0.9512
2.9167 -5.8064 -1.0704 0.9740
6.5020 -10.4950 -2.0338 0.9512
8.2602 -9.1757 -2.0339 0.9512
9.0443 -8.4040 -2.0339 0.9512
-6.9152 -8.3220 -2.0337 0.9569
-6.1468 -8.9046 -2.0337 0.9569
-3.5753 -10.2123 -2.0338 0.9569
-0.7496 -10.7942 -2.0338 0.9569
0.2142 -10.8182 -2.0338 0.9569
1.7821 -6.0329 -1.1824 0.9747
2.3225 -5.8768 -1.1877 0.9746
2.8440 -5.6615 -1.1909 0.9745
7.2397 -8.0421 -2.0339 0.9569
-6.1490 -7.4000 -2.0338 0.9614
-5.4658 -7.9180 -2.0338 0.9614
-4.7392 -8.3732 -2.0338 0.9614
-3.1793 -9.0810 -2.0338 0.9614
-2.3582 -9.3280 -2.0338 0.9614
-1.5184 -9.5009 -2.0338 0.9614
0.1905 -9.6197 -2.0338 0.9614
1.0461 -9.5645 -2.0338 0.9614
6.4376 -7.1511 -2.0339 0.9614
8.5290 -4.4543 -2.0339 0.9614
8.8918 -3.6774 -2.0339 0.9614
-4.9160 -7.1215 -2.0338 0.9651
-3.5752 -7.8805 -2.0338 0.9651
-2.8594 -8.1675 -2.0338 0.9651
-2.1210 -8.3896 -2.0338 0.9651
-1.3657 -8.5452 -2.0338 0.9651
-0.5995 -8.6329 -2.0338 0.9651
1.7242 -5.8369 -1.4304 0.9753
2.2826 -5.7757 -1.4596 0.9748
4.5575 -7.3565 -2.0339 0.9651
6.3396 -5.8908 -2.0339 0.9651
6.8389 -5.3030 -2.0339 0.9651
7.2839 -4.6732 -2.0339 0.9651
7.9972 -3.3075 -2.0339 0.9651
-5.5380 -5.5705 -2.0338 0.9681
-2.5955 -7.4138 -2.0338 0.9681
-1.9252 -7.6154 -2.0338 0.9681
-1.2396 -7.7566 -2.0338 0.9681
-0.5442 -7.8362 -2.0338 0.9681
1.7412 -5.8943 -1.5913 0.9749
2.8416 -5.6568 -1.6390 0.9742
4.1370 -6.6776 -2.0339 0.9681
5.2556 -5.8382 -2.0339 0.9681
5.7545 -5.3472 -2.0339 0.9681
6.6116 -4.2419 -2.0339 0.9681
6.9630 -3.6365 -2.0339 0.9681
-5.0652 -5.0949 -2.0338 0.9706
-3.5388 -6.2522 -2.0338 0.9706
-2.3739 -6.7807 -2.0338 0.9706
0.1423 -7.1829 -2.0338 0.9706
1.4139 -7.0439 -2.0338 0.9706
1.7469 -5.9137 -1.7456 0.9747
3.7837 -6.1074 -2.0339 0.9706
4.3124 -5.7463 -2.0339 0.9706
5.2631 -4.8905 -2.0339 0.9706
6.0470 -3.8797 -2.0339 0.9706
6.6393 -2.7458 -2.0339 0.9706
-2.7318 -6.0216 -2.0338 0.9727
-1.6207 -6.4107 -2.0338 0.9727
-0.4581 -6.5965 -2.0338 0.9727
0.1309 -6.6111 -2.0338 0.9727
2.4304 -6.1496 -2.0339 0.9727
2.9682 -5.9089 -2.0339 0.9727
3.4825 -5.6212 -2.0339 0.9727
4.4241 -4.9146 -2.0339 0.9727
5.2256 -4.0521 -2.0339 0.9727
5.5656 -3.5708 -2.0339 0.9727
5.8614 -3.0612 -2.0339 0.9727
-3.9103 -4.7059 -2.0338 0.9745
-2.0217 -5.7748 -2.0338 0.9745
-1.4996 -5.9319 -2.0338 0.9745
1.7334 -5.8679 -2.0338 0.9745
2.2488 -5.6904 -2.0339 0.9745
2.7465 -5.4676 -2.0339 0.9745
3.2223 -5.2014 -2.0339 0.9745
4.8353 -3.7495 -2.0339 0.9745
5.1499 -3.3041 -2.0339 0.9745
5.4237 -2.8326 -2.0339 0.9745
5.6543 -2.3385 -2.0339 0.9745
-4.0098 -4.0333 -2.0338 0.9761
-3.6348 -4.3743 -2.0338 0.9761
-3.2309 -4.6804 -2.0338 0.9761
-2.8014 -4.9495 -2.0338 0.9761
-2.3497 -5.1793 -2.0338 0.9761
0.6184 -5.6537 -2.0338 0.9761
2.0904 -5.2893 -2.0339 0.9761
2.5530 -5.0822 -2.0339 0.9761
3.4137 -4.5490 -2.0339 0.9761
3.8052 -4.2270 -2.0339 0.9761
4.1664 -3.8715 -2.0339 0.9761
-3.7418 -3.7637 -2.0338 0.9775
-3.3919 -4.0819 -2.0338 0.9775
-3.0151 -4.3677 -2.0338 0.9775
-2.6142 -4.6187 -2.0338 0.9775
-1.7537 -5.0092 -2.0338 0.9775
-0.8376 -5.2408 -2.0338 0.9775
-0.3677 -5.2945 -2.0338 0.9775
1.5035 -5.0899 -2.0339 0.9775
1.9507 -4.9359 -2.0339 0.9775
2.7951 -4.5117 -2.0339 0.9775
3.5509 -3.9445 -2.0339 0.9775
3.8880 -3.6128 -2.0339 0.9775
4.4671 -2.8660 -2.0339 0.9775
4.9046 -2.0284 -2.0339 0.9775
-3.5036 -3.5241 -2.0338 0.9788
-2.8231 -4.0896 -2.0338 0.9788
-1.6420 -4.6902 -2.0338 0.9788
-1.2180 -4.8178 -2.0338 0.9788
-0.7843 -4.9071 -2.0338 0.9788
0.0984 -4.9684 -2.0338 0.9788
0.5403 -4.9400 -2.0338 0.9788
2.6171 -4.2245 -2.0339 0.9788
2.9829 -3.9747 -2.0339 0.9788
3.3248 -3.6934 -2.0339 0.9788
3.6404 -3.3828 -2.0339 0.9788
4.1827 -2.6836 -2.0339 0.9788
4.4050 -2.3006 -2.0339 0.9788
4.5923 -1.8993 -2.0339 0.9788
-2.9825 -3.5893 -2.0338 0.9798
-0.3234 -4.6555 -2.0338 0.9798
0.9184 -4.5755 -2.0339 0.9798
1.3221 -4.4756 -2.0339 0.9798
2.0948 -4.1702 -2.0339 0.9798
2.4578 -3.9672 -2.0339 0.9798
2.8012 -3.7327 -2.0339 0.9798
3.1223 -3.4685 -2.0339 0.9798
3.9280 -2.5201 -2.0339 0.9798
4.1368 -2.1604 -2.0339 0.9798
4.3127 -1.7836 -2.0339 0.9798
-2.1643 -3.8238 -2.0338 0.9808
-1.8153 -4.0013 -2.0338 0.9808
-1.0770 -4.2598 -2.0338 0.9808
-0.6934 -4.3388 -2.0338 0.9808
0.4777 -4.3678 -2.0339 0.9808
1.6150 -4.0864 -2.0339 0.9808
2.6374 -3.5144 -2.0339 0.9808
2.9398 -3.2656 -2.0339 0.9808
3.2188 -2.9910 -2.0339 0.9808
3.6982 -2.3727 -2.0339 0.9808
3.8948 -2.0341 -2.0339 0.9808
4.0605 -1.6793 -2.0339 0.9808
-2.6499 -3.1890 -2.0338 0.9817
-2.3555 -3.4122 -2.0338 0.9817
-2.0423 -3.6084 -2.0338 0.9817
-1.0163 -4.0198 -2.0338 0.9817
-0.6544 -4.0943 -2.0338 0.9817
0.4508 -4.1217 -2.0339 0.9817
0.8160 -4.0652 -2.0339 0.9817
1.1746 -3.9764 -2.0339 0.9817
1.5239 -3.8561 -2.0339 0.9817
1.8612 -3.7052 -2.0339 0.9817
2.1837 -3.5247 -2.0339 0.9817
2.4887 -3.3164 -2.0339 0.9817
3.0375 -2.8225 -2.0339 0.9817
3.6754 -1.9195 -2.0339 0.9817
3.8317 -1.5847 -2.0339 0.9817
-2.7640 -2.7803 -2.0338 0.9825
-2.2272 -3.2264 -2.0338 0.9825
-1.9311 -3.4119 -2.0338 0.9825
-1.6197 -3.5702 -2.0338 0.9825
-0.9609 -3.8009 -2.0338 0.9825
-0.6187 -3.8713 -2.0339 0.9825
0.7715 -3.8438 -2.0339 0.9825
1.7598 -3.5034 -2.0339 0.9825
2.3532 -3.1357 -2.0339 0.9825
2.6230 -2.9138 -2.0339 0.9825
2.8721 -2.6687 -2.0339 0.9825
3.0982 -2.4025 -2.0339 0.9825
3.6230 -1.4984 -2.0339 0.9825
-0.9102 -3.6002 -2.0339 0.9832
-0.2573 -3.7045 -2.0339 0.9832
0.0736 -3.7127 -2.0339 0.9832
1.0520 -3.5613 -2.0339 0.9832
1.3648 -3.4535 -2.0339 0.9832
1.6669 -3.3183 -2.0339 0.9832
2.2290 -2.9702 -2.0339 0.9832
2.9346 -2.2756 -2.0339 0.9832
3.1256 -2.0053 -2.0339 0.9832
3.2917 -1.7191 -2.0339 0.9832
-2.4836 -2.4982 -2.0339 0.9839
-2.0012 -2.8991 -2.0339 0.9839
-1.7352 -3.0657 -2.0339 0.9839
-0.5559 -3.4786 -2.0339 0.9839
-0.2441 -3.5143 -2.0339 0.9839
0.6933 -3.4539 -2.0339 0.9839
1.2948 -3.2762 -2.0339 0.9839
1.8553 -2.9947 -2.0339 0.9839
2.5807 -2.3980 -2.0339 0.9839
2.7839 -2.1587 -2.0339 0.9839
2.9651 -1.9023 -2.0339 0.9839
1.7595 -0.7277 -1.0993 0.9912
