ply
format ascii 1.0
element vertex 214
property float32 x
property float32 y
property float32 z
property float32 I
end_header
-12.2809 13.1754 3.1759 0.9295
-11.3211 12.1456 2.1622 0.9352
-11.5263 12.3658 1.8153 0.9343
-12.0773 12.9569 -0.8983 0.9315
-17.1792 5.2263 -0.9107 0.9306
-16.3733 4.9812 -1.6431 0.9335
-6.6705 15.7707 -2.0340 0.9333
-8.0236 15.1270 -2.0340 0.9334
-9.3152 14.3675 -2.0340 0.9334
-10.5354 13.4981 -2.0340 0.9334
-11.6750 12.5253 -2.0339 0.9334
-13.6778 10.3001 -2.0339 0.9334
-14.5257 9.0649 -2.0339 0.9334
-16.3804 4.9833 -2.0338 0.9334
-17.1120 0.5603 -2.0338 0.9334
-16.6705 -3.9009 -2.0337 0.9334
-16.2656 -5.3433 -2.0337 0.9334
-15.7361 -6.7447 -2.0337 0.9334
-4.4150 13.6597 -2.0340 0.9437
-6.7266 12.6817 -2.0340 0.9437
-8.8324 11.3161 -2.0340 0.9437
-9.7877 10.5006 -2.0339 0.9437
-12.1777 7.5996 -2.0339 0.9437
-12.7954 6.5059 -2.0339 0.9437
-13.3150 5.3623 -2.0338 0.9437
-13.7327 4.1778 -2.0338 0.9437
-14.0452 2.9613 -2.0338 0.9437
-14.2503 1.7221 -2.0338 0.9437
-14.2085 -2.0361 -2.0338 0.9437
-13.9760 -3.2704 -2.0337 0.9437
-5.7854 10.9073 -2.0340 0.9512
-7.5966 9.7328 -2.0339 0.9512
-8.4183 9.0313 -2.0339 0.9512
-10.4739 6.5363 -2.0339 0.9512
-11.4521 4.6121 -2.0339 0.9512
-12.2565 1.4811 -2.0338 0.9512
-12.3389 0.4040 -2.0338 0.9512
-12.3270 -0.6762 -2.0338 0.9512
-12.2206 -1.7512 -2.0338 0.9512
-11.7287 -3.8529 -2.0338 0.9512
-5.8869 9.0797 -2.0340 0.9569
-6.6580 8.5303 -2.0339 0.9569
-8.0419 7.2402 -2.0339 0.9569
-9.6455 4.9043 -2.0339 0.9569
-10.0372 4.0423 -2.0339 0.9569
-10.8041 -0.5927 -2.0338 0.9569
-10.7109 -1.5349 -2.0338 0.9569
-10.5356 -2.4654 -2.0338 0.9569
-10.2798 -3.3769 -2.0338 0.9569
-9.9452 -4.2626 -2.0338 0.9569
-2.3118 7.1525 -1.5889 0.9697
-6.5607 7.0386 -2.0339 0.9614
-7.1509 6.4380 -2.0339 0.9614
-8.1629 5.0941 -2.0339 0.9614
-8.5769 4.3610 -2.0339 0.9614
-8.9252 3.5945 -2.0339 0.9614
-8.8434 -3.7904 -2.0338 0.9614
-4.7080 7.2615 -2.0339 0.9651
-5.3248 6.8221 -2.0339 0.9651
-5.9008 6.3305 -2.0339 0.9651
-8.2792 2.5187 -2.0339 0.9651
-8.6491 0.2832 -2.0338 0.9651
-8.5661 -1.2275 -2.0338 0.9651
-8.4260 -1.9717 -2.0338 0.9651
-7.9538 -3.4091 -2.0338 0.9651
-3.0602 7.2350 -2.0340 0.9681
-4.2736 6.5914 -2.0339 0.9681
-4.8334 6.1925 -2.0339 0.9681
-5.3562 5.7462 -2.0339 0.9681
-5.8380 5.2560 -2.0339 0.9681
-6.6641 4.1588 -2.0339 0.9681
-7.0021 3.5603 -2.0339 0.9681
-7.2865 2.9345 -2.0339 0.9681
-7.5152 2.2862 -2.0339 0.9681
-7.6862 1.6205 -2.0339 0.9681
-7.6484 -1.7897 -2.0338 0.9681
-7.4627 -2.4515 -2.0338 0.9681
-2.2097 6.8365 -2.0340 0.9706
-3.3666 6.3471 -2.0339 0.9706
-3.9086 6.0285 -2.0339 0.9706
-4.4206 5.6637 -2.0339 0.9706
-6.0950 3.8037 -2.0339 0.9706
-6.6643 2.6839 -2.0339 0.9706
-6.8734 2.0910 -2.0339 0.9706
-7.1325 0.8619 -2.0338 0.9706
-7.1805 0.2351 -2.0338 0.9706
-7.1735 -0.3935 -2.0338 0.9706
-7.1116 -1.0191 -2.0338 0.9706
-6.8254 -2.2422 -2.0338 0.9706
-6.6033 -2.8303 -2.0338 0.9706
-2.0338 6.2923 -2.0340 0.9727
-2.5761 6.0904 -2.0339 0.9727
-3.0986 5.8418 -2.0339 0.9727
-3.5974 5.5486 -2.0339 0.9727
-6.4702 1.3642 -2.0339 0.9727
-6.5647 0.7933 -2.0339 0.9727
-6.6089 0.2164 -2.0338 0.9727
-6.5455 -0.9380 -2.0338 0.9727
-6.4384 -1.5066 -2.0338 0.9727
-6.2821 -2.0637 -2.0338 0.9727
-6.0776 -2.6050 -2.0338 0.9727
-1.8819 5.8223 -2.0339 0.9745
-2.3836 5.6355 -2.0339 0.9745
-4.5473 4.0940 -2.0339 0.9745
-4.8878 3.6808 -2.0339 0.9745
-5.1908 3.2394 -2.0339 0.9745
-5.4541 2.7732 -2.0339 0.9745
-5.6757 2.2858 -2.0339 0.9745
-5.9870 1.2623 -2.0339 0.9745
-6.0745 0.7340 -2.0339 0.9745
-2.2157 5.2383 -2.0339 0.9761
-3.0941 4.7723 -2.0339 0.9761
-3.8780 4.1604 -2.0339 0.9761
-4.2269 3.8055 -2.0339 0.9761
-5.2757 2.1247 -2.0339 0.9761
-5.4412 1.6553 -2.0339 0.9761
-5.5650 1.1733 -2.0339 0.9761
-5.6843 0.1861 -2.0339 0.9761
-5.6299 -0.8068 -2.0338 0.9761
-5.5378 -1.2958 -2.0338 0.9761
-5.2274 -2.2406 -2.0338 0.9761
-1.6323 5.0503 -2.0339 0.9775
-2.8873 4.4534 -2.0339 0.9775
-3.2656 4.1839 -2.0339 0.9775
-3.9444 3.5512 -2.0339 0.9775
-4.2397 3.1927 -2.0339 0.9775
-4.7309 2.4055 -2.0339 0.9775
-5.1931 1.0949 -2.0339 0.9775
-5.3045 0.1737 -2.0339 0.9775
-5.2993 -0.2907 -2.0339 0.9775
-5.1677 -1.2092 -2.0338 0.9775
-5.0421 -1.6564 -2.0338 0.9775
-1.5284 4.7287 -2.0339 0.9788
-3.0577 3.9175 -2.0339 0.9788
-4.7543 1.4463 -2.0339 0.9788
-2.1213 0.4472 -0.8873 0.9907
-2.1085 0.2548 -0.8692 0.9909
-2.1227 0.0695 -0.8692 0.9909
-2.1218 -0.1164 -0.8697 0.9909
-2.1116 -0.3026 -0.8730 0.9908
-2.1188 -0.4959 -0.8906 0.9906
-4.5675 -1.9577 -2.0338 0.9788
-1.4353 4.4407 -2.0339 0.9798
-1.8180 4.2982 -2.0339 0.9798
-2.1868 4.1229 -2.0339 0.9798
-2.5389 3.9159 -2.0339 0.9798
-2.8714 3.6790 -2.0339 0.9798
-3.1821 3.4138 -2.0339 0.9798
-3.7280 2.8074 -2.0339 0.9798
-3.9591 2.4707 -2.0339 0.9798
-4.1600 2.1152 -2.0339 0.9798
-1.9037 0.4013 -0.8479 0.9915
-1.9055 0.2302 -0.8365 0.9917
-4.4336 -1.4565 -2.0338 0.9798
-4.2893 -1.8385 -2.0338 0.9798
-1.7118 4.0469 -2.0339 0.9808
-2.0589 3.8818 -2.0339 0.9808
-3.9167 1.9915 -2.0339 0.9808
-4.0758 1.6415 -2.0339 0.9808
-1.5962 0.3365 -0.7551 0.9928
-1.6097 0.1945 -0.7505 0.9929
-1.5843 0.0518 -0.7338 0.9930
-1.5945 -0.0875 -0.7392 0.9930
-1.6106 -0.2308 -0.7532 0.9929
-1.6347 -0.5370 -0.7965 0.9924
-4.0385 -1.7310 -2.0338 0.9808
-1.6153 3.8189 -2.0339 0.9817
-2.2557 3.4791 -2.0339 0.9817
-2.5512 3.2687 -2.0339 0.9817
-3.3122 2.4943 -2.0339 0.9817
-3.6961 1.8792 -2.0339 0.9817
-1.2942 0.3937 -0.6636 0.9940
-1.3310 0.2806 -0.6672 0.9940
-1.3524 0.1634 -0.6682 0.9939
-1.3454 0.0440 -0.6603 0.9940
-1.3500 -0.0741 -0.6632 0.9940
-1.3493 -0.1934 -0.6686 0.9939
-1.3233 -0.3097 -0.6667 0.9940
-1.2823 -0.4213 -0.6621 0.9940
-3.8109 -1.6334 -2.0338 0.9817
-1.2058 3.7306 -2.0339 0.9825
-1.8371 3.4635 -2.0339 0.9825
-2.4122 3.0906 -2.0339 0.9825
-2.6732 2.8679 -2.0339 0.9825
-3.1318 2.3584 -2.0339 0.9825
-3.4947 1.7769 -2.0339 0.9825
-1.1203 0.4511 -0.6265 0.9946
-1.1473 0.3490 -0.6221 0.9946
-1.1767 0.2481 -0.6239 0.9946
-1.1991 0.1449 -0.6266 0.9946
-1.1970 0.0392 -0.6213 0.9946
-1.1708 -0.2740 -0.6238 0.9946
-1.4466 3.4202 -2.0339 0.9832
-1.7401 3.2806 -2.0339 0.9832
-2.0202 3.1159 -2.0339 0.9832
-2.2849 2.9274 -2.0339 0.9832
-2.7598 2.4847 -2.0339 0.9832
-3.1504 1.9660 -2.0339 0.9832
-1.0350 0.3148 -0.5925 0.9951
-1.0568 0.2228 -0.5915 0.9951
-1.0732 -0.1538 -0.5938 0.9951
-1.0306 -0.3386 -0.5942 0.9951
-1.0043 -0.4305 -0.5985 0.9950
-1.3723 3.2446 -2.0339 0.9839
-1.6507 3.1121 -2.0339 0.9839
-1.9165 2.9559 -2.0339 0.9839
-2.1675 2.7771 -2.0339 0.9839
-2.8141 2.1192 -2.0339 0.9839
-2.9886 1.8651 -2.0339 0.9839
-0.9375 0.3775 -0.5835 0.9953
-0.9556 0.2907 -0.5767 0.9954
-0.9728 0.2051 -0.5740 0.9954
-0.9838 -0.1410 -0.5738 0.9954
-0.9520 -0.3128 -0.5786 0.9954
