ply
format ascii 1.0
element vertex 249
property float32 x
property float32 y
property float32 z
property float32 I
end_header
-12.3001 13.1665 3.1771 0.9294
-11.2985 12.0943 2.1553 0.9354
-11.5355 12.3480 1.8145 0.9343
-12.0070 12.8527 1.0907 0.9319
-17.4163 4.8534 -1.3257 0.9301
-13.1695 -8.0683 -1.1324 0.9399
-12.7711 -7.8242 -1.4379 0.9416
-11.4697 -8.5565 -1.3738 0.9441
-9.2235 14.4266 -2.0340 0.9334
-10.4999 13.5257 -2.0340 0.9334
-11.6889 12.5123 -2.0339 0.9334
-13.7657 10.1822 -2.0339 0.9334
-16.0058 6.0804 -2.0338 0.9334
-16.4932 4.5960 -2.0338 0.9334
-17.0531 1.5257 -2.0338 0.9334
-17.1211 -0.0349 -2.0338 0.9334
-17.0465 -1.5953 -2.0337 0.9334
-16.8301 -3.1423 -2.0337 0.9334
-15.3530 -7.5760 -2.0337 0.9334
-12.7324 -11.4453 -2.0337 0.9334
-11.6362 -12.5581 -2.0337 0.9334
-7.7325 12.0945 -2.0340 0.9437
-8.8026 11.3393 -2.0340 0.9437
-9.7994 10.4897 -2.0339 0.9437
-12.2705 7.4489 -2.0339 0.9437
-12.8982 6.2994 -2.0339 0.9437
-14.1207 2.5769 -2.0338 0.9437
-14.2968 1.2791 -2.0338 0.9437
-14.3537 -0.0293 -2.0338 0.9437
-14.2912 -1.3374 -2.0338 0.9437
-14.1097 -2.6344 -2.0338 0.9437
-12.8716 -6.3516 -2.0337 0.9437
-10.6745 -9.5954 -2.0337 0.9437
-9.7555 -10.5284 -2.0337 0.9437
-8.7552 -11.3737 -2.0337 0.9437
-6.6506 10.4022 -2.0340 0.9512
-9.2155 8.2162 -2.0339 0.9512
-9.9259 7.3420 -2.0339 0.9512
-11.0936 5.4180 -2.0339 0.9512
-11.5412 4.3843 -2.0339 0.9512
-11.8926 3.3141 -2.0338 0.9512
-12.1452 2.2164 -2.0338 0.9512
-12.3455 -0.0252 -2.0338 0.9512
-11.8786 -3.3625 -2.0338 0.9512
-11.5226 -4.4312 -2.0338 0.9512
-11.0708 -5.4629 -2.0337 0.9512
-9.8951 -7.3818 -2.0337 0.9512
-8.3906 -9.0554 -2.0337 0.9512
-8.6996 6.4349 -2.0339 0.9569
-9.7230 4.7487 -2.0339 0.9569
-10.6447 1.9426 -2.0338 0.9569
-10.7732 -1.0082 -2.0338 0.9569
-10.6365 -1.9859 -2.0338 0.9569
-10.4111 -2.9471 -2.0338 0.9569
-10.0991 -3.8837 -2.0338 0.9569
-8.6727 -6.4699 -2.0338 0.9569
-6.6001 -8.5740 -2.0337 0.9569
-5.1831 8.1069 -2.0339 0.9614
-5.9004 7.6007 -2.0339 0.9614
-7.1821 6.4032 -2.0339 0.9614
-8.6458 4.2226 -2.0339 0.9614
-8.9946 3.4169 -2.0339 0.9614
-9.2686 2.5829 -2.0338 0.9614
-9.4654 1.7273 -2.0338 0.9614
-9.5834 0.8574 -2.0338 0.9614
-9.5797 -0.8965 -2.0338 0.9614
-9.4581 -1.7659 -2.0338 0.9614
-8.6282 -4.2576 -2.0338 0.9614
-8.2042 -5.0263 -2.0338 0.9614
-7.7119 -5.7531 -2.0338 0.9614
-6.5393 -7.0575 -2.0338 0.9614
-5.8689 -7.6241 -2.0338 0.9614
-4.6617 7.2914 -2.0339 0.9651
-5.3068 6.8361 -2.0339 0.9651
-6.4596 5.7591 -2.0339 0.9651
-6.9575 5.1463 -2.0339 0.9651
-7.3976 4.4908 -2.0339 0.9651
-7.7761 3.7978 -2.0339 0.9651
-8.0898 3.0732 -2.0339 0.9651
-8.6193 0.7712 -2.0338 0.9651
-8.6537 -0.0177 -2.0338 0.9651
-8.6160 -0.8063 -2.0338 0.9651
-8.5067 -1.5883 -2.0338 0.9651
-8.3264 -2.3570 -2.0338 0.9651
-8.0770 -3.1061 -2.0338 0.9651
-7.7602 -3.8293 -2.0338 0.9651
-7.3789 -4.5207 -2.0338 0.9651
-5.8815 -6.3476 -2.0338 0.9651
-5.8634 5.2276 -2.0339 0.9681
-6.7149 4.0763 -2.0339 0.9681
-7.5669 2.1087 -2.0339 0.9681
-7.8209 -0.7319 -2.0338 0.9681
-7.7216 -1.4417 -2.0338 0.9681
-7.3316 -2.8195 -2.0338 0.9681
-7.0441 -3.4759 -2.0338 0.9681
-5.3388 -5.7618 -2.0338 0.9681
-4.7914 -6.2244 -2.0338 0.9681
-3.8701 6.0533 -2.0339 0.9706
-4.9046 5.2501 -2.0339 0.9706
-5.7761 4.2725 -2.0339 0.9706
-6.4557 3.1529 -2.0339 0.9706
-7.0677 1.2898 -2.0339 0.9706
-7.1843 -0.0147 -2.0338 0.9706
-7.0622 -1.3186 -2.0338 0.9706
-6.7055 -2.5787 -2.0338 0.9706
-5.7584 -4.2958 -2.0338 0.9706
-5.3429 -4.8028 -2.0338 0.9706
-4.8829 -5.2697 -2.0338 0.9706
-4.3822 -5.6929 -2.0338 0.9706
-3.5620 5.5714 -2.0339 0.9727
-4.0550 5.2235 -2.0339 0.9727
-4.9358 4.4006 -2.0339 0.9727
-5.6525 3.4314 -2.0339 0.9727
-6.3698 1.7751 -2.0339 0.9727
-6.5050 1.1871 -2.0339 0.9727
-6.5836 -0.6161 -2.0338 0.9727
-6.5000 -1.2136 -2.0338 0.9727
-5.9296 -2.9261 -2.0338 0.9727
-5.3000 -3.9538 -2.0338 0.9727
-4.9176 -4.4204 -2.0338 0.9727
-4.4942 -4.8503 -2.0338 0.9727
-4.0334 -5.2397 -2.0338 0.9727
-4.1770 4.4712 -2.0339 0.9745
-5.2304 3.1751 -2.0339 0.9745
-5.4980 2.6852 -2.0339 0.9745
-5.8940 1.6425 -2.0339 0.9745
-6.0943 0.5452 -2.0339 0.9745
-5.8871 -1.6665 -2.0338 0.9745
-5.2172 -3.1963 -2.0338 0.9745
-4.9042 -3.6586 -2.0338 0.9745
-4.5504 -4.0903 -2.0338 0.9745
-4.1585 -4.4880 -2.0338 0.9745
-3.0637 4.7919 -2.0339 0.9761
-4.2453 3.7849 -2.0339 0.9761
-4.8618 2.9513 -2.0339 0.9761
-5.1105 2.4959 -2.0339 0.9761
-5.3168 2.0197 -2.0339 0.9761
-5.5950 1.0210 -2.0339 0.9761
-5.6873 -0.0116 -2.0339 0.9761
-4.8496 -2.9711 -2.0338 0.9761
-4.5586 -3.4007 -2.0338 0.9761
-4.2296 -3.8021 -2.0338 0.9761
-3.8655 -4.1718 -2.0338 0.9761
-3.4692 -4.5067 -2.0338 0.9761
-2.8589 4.4717 -2.0339 0.9775
-3.6232 3.8784 -2.0339 0.9775
-3.9616 3.5320 -2.0339 0.9775
-4.2670 3.1562 -2.0339 0.9775
-4.9614 1.8848 -2.0339 0.9775
-5.1125 1.4247 -2.0339 0.9775
-5.2862 0.4729 -2.0339 0.9775
-5.3073 -0.0108 -2.0339 0.9775
-5.2171 -0.9741 -2.0338 0.9775
-4.9536 -1.9050 -2.0338 0.9775
-4.5254 -2.7725 -2.0338 0.9775
-4.2539 -3.1735 -2.0338 0.9775
-3.6072 -3.8929 -2.0338 0.9775
-3.2373 -4.2055 -2.0338 0.9775
-3.3925 3.6314 -2.0339 0.9788
-3.7093 3.3071 -2.0339 0.9788
-4.6455 1.7648 -2.0339 0.9788
-4.6382 -1.7837 -2.0338 0.9788
-4.4563 -2.1990 -2.0338 0.9788
-4.2373 -2.5960 -2.0338 0.9788
-3.6957 -3.3221 -2.0338 0.9788
-2.8618 3.6865 -2.0339 0.9798
-3.1859 3.4103 -2.0339 0.9798
-3.4834 3.1057 -2.0339 0.9798
-3.7520 2.7753 -2.0339 0.9798
-4.1934 2.0480 -2.0339 0.9798
-1.9052 0.3477 -0.8440 0.9916
-1.9129 0.1711 -0.8370 0.9917
-1.9179 -0.0039 -0.8359 0.9917
-1.9121 -0.1790 -0.8370 0.9917
-2.0079 -0.5684 -0.9095 0.9909
-4.3557 -1.6751 -2.0338 0.9798
-4.1849 -2.0651 -2.0338 0.9798
-3.9793 -2.4379 -2.0338 0.9798
-3.4707 -3.1198 -2.0338 0.9798
-2.6944 3.4709 -2.0339 0.9808
-2.9996 3.2109 -2.0339 0.9808
-3.5326 2.6130 -2.0339 0.9808
-3.7560 2.2801 -2.0339 0.9808
-3.9482 1.9283 -2.0339 0.9808
-4.1075 1.5604 -2.0339 0.9808
-1.6057 -0.1503 -0.7465 0.9929
-1.6056 -0.2998 -0.7561 0.9928
-4.1011 -1.5771 -2.0338 0.9808
-3.5218 -2.6273 -2.0338 0.9808
-2.9864 -3.2230 -2.0338 0.9808
-2.2336 3.4934 -2.0339 0.9817
-2.5426 3.2753 -2.0339 0.9817
-3.0950 2.7593 -2.0339 0.9817
-3.3336 2.4657 -2.0339 0.9817
-3.5444 2.1516 -2.0339 0.9817
-3.7258 1.8196 -2.0339 0.9817
-1.2580 0.4779 -0.6601 0.9940
-1.3053 0.3637 -0.6647 0.9940
-1.3534 0.1211 -0.6665 0.9940
-1.3352 -0.0028 -0.6549 0.9941
-1.3535 -0.1267 -0.6668 0.9940
-1.3035 -0.3690 -0.6645 0.9940
-2.8181 -3.0413 -2.0338 0.9817
-2.5291 -3.2856 -2.0338 0.9817
-2.4041 3.0969 -2.0339 0.9825
-2.9264 2.6090 -2.0339 0.9825
-3.1520 2.3314 -2.0339 0.9825
-3.5228 1.7205 -2.0339 0.9825
-1.1570 0.3224 -0.6231 0.9946
-1.1858 0.2164 -0.6253 0.9946
-1.2004 0.1074 -0.6253 0.9946
-1.1921 -0.0025 -0.6185 0.9946
-1.1554 -0.3271 -0.6229 0.9946
-1.1258 -0.4330 -0.6258 0.9946
-3.5157 -1.7349 -2.0339 0.9825
-3.3429 -2.0481 -2.0338 0.9825
-2.9156 -2.6209 -2.0338 0.9825
-2.6646 -2.8757 -2.0338 0.9825
-2.3914 -3.1066 -2.0338 0.9825
-2.2771 2.9334 -2.0339 0.9832
-2.7718 2.4713 -2.0339 0.9832
-3.1743 1.9270 -2.0339 0.9832
-0.9861 0.4816 -0.6011 0.9950
-1.0187 0.3870 -0.5969 0.9950
-1.0386 0.2894 -0.5905 0.9951
-1.0801 0.0966 -0.5939 0.9951
-1.0760 -0.0022 -0.5893 0.9951
-1.0636 -0.1986 -0.5926 0.9951
-1.0380 -0.2939 -0.5909 0.9951
-1.0175 -0.3913 -0.5971 0.9950
-0.9845 -0.4859 -0.6013 0.9950
-2.9764 -2.2204 -2.0338 0.9832
-2.7617 -2.4825 -2.0338 0.9832
-2.5239 -2.7239 -2.0338 0.9832
-1.8976 2.9680 -2.0339 0.9839
-2.1602 2.7827 -2.0339 0.9839
-0.9157 0.4472 -0.5883 0.9953
-0.9587 0.2671 -0.5746 0.9954
-0.9887 0.0884 -0.5731 0.9954
-0.9890 -0.0021 -0.5710 0.9954
-0.9884 -0.0925 -0.5732 0.9954
-0.9582 -0.2713 -0.5750 0.9954
-0.9416 -0.3621 -0.5824 0.9954
-0.9143 -0.4512 -0.5887 0.9953
-3.0038 -1.8403 -2.0339 0.9839
-2.8236 -2.1064 -2.0339 0.9839
-2.6198 -2.3550 -2.0339 0.9839
-2.3943 -2.5840 -2.0339 0.9839
-2.1488 -2.7915 -2.0339 0.9839
