ply
format ascii 1.0
element vertex 173
property float32 x
property float32 y
property float32 z
property float32 I
end_header
-11.1996 12.6255 2.1977 0.9342
-12.7070 11.9556 2.2720 0.9320
-11.8007 13.3031 1.5054 0.9311
-16.7226 5.2420 -0.8888 0.9322
-16.3534 5.1263 -1.2566 0.9336
-16.3918 5.1383 -1.6492 0.9333
-10.1623 13.7813 -2.0340 0.9334
-11.3627 12.8093 -2.0339 0.9334
-12.4706 11.7332 -2.0339 0.9334
-14.3737 9.3041 -2.0339 0.9334
-16.9914 2.1057 -2.0338 0.9334
-16.6396 -4.0304 -2.0337 0.9334
-16.2087 -5.5134 -2.0337 0.9334
-15.6458 -6.9515 -2.0337 0.9334
-8.5195 11.5535 -2.0340 0.9437
-9.5259 10.7387 -2.0339 0.9437
-11.2985 8.8544 -2.0339 0.9437
-13.2544 5.5104 -2.0338 0.9437
-14.3303 -0.8202 -2.0338 0.9437
-14.1979 -2.1082 -2.0338 0.9437
-13.5888 -4.6223 -2.0337 0.9437
-13.1170 -5.8280 -2.0337 0.9437
-12.5384 -6.9862 -2.0337 0.9437
-7.3275 9.9370 -2.0339 0.9512
-8.1931 9.2362 -2.0339 0.9512
-8.9920 8.4603 -2.0339 0.9512
-9.7177 7.6154 -2.0339 0.9512
-11.4000 4.7394 -2.0339 0.9512
-11.7806 3.6929 -2.0338 0.9512
-12.3253 -0.7054 -2.0338 0.9512
-12.2115 -1.8132 -2.0338 0.9512
-11.6877 -3.9756 -2.0338 0.9512
-6.4222 8.7093 -2.0339 0.9569
-7.8811 7.4150 -2.0339 0.9569
-8.5171 6.6746 -2.0339 0.9569
-9.5767 5.0374 -2.0339 0.9569
-9.9916 4.1539 -2.0339 0.9569
-10.8145 0.3577 -2.0338 0.9569
-10.5161 -2.5472 -2.0338 0.9569
-9.8881 -4.3933 -2.0338 0.9569
-6.3852 7.1982 -2.0339 0.9614
-8.0774 5.2285 -2.0339 0.9614
-8.5157 4.4793 -2.0339 0.9614
-9.1812 2.8780 -2.0339 0.9614
-9.5486 1.1833 -2.0338 0.9614
-9.3511 -2.2650 -2.0338 0.9614
-8.7926 -3.9066 -2.0338 0.9614
-8.4048 -4.6831 -2.0338 0.9614
-5.1361 6.9653 -2.0339 0.9651
-5.7429 6.4740 -2.0339 0.9651
-6.3029 5.9302 -2.0339 0.9651
-6.8116 5.3380 -2.0339 0.9651
-8.2577 2.5885 -2.0339 0.9651
-8.4573 1.8339 -2.0338 0.9651
-8.5881 1.0643 -2.0338 0.9651
-8.5598 -1.2710 -2.0338 0.9651
-8.4104 -2.0372 -2.0338 0.9651
-8.1926 -2.7868 -2.0338 0.9651
-7.9082 -3.5137 -2.0338 0.9651
-7.5594 -4.2120 -2.0338 0.9651
-4.6621 6.3225 -2.0339 0.9681
-5.2129 5.8766 -2.0339 0.9681
-5.7212 5.3829 -2.0339 0.9681
-6.1830 4.8454 -2.0339 0.9681
-6.5944 4.2685 -2.0339 0.9681
-7.2534 3.0155 -2.0339 0.9681
-7.8509 0.2596 -2.0338 0.9681
-7.7699 -1.1537 -2.0338 0.9681
-6.8617 -3.8233 -2.0338 0.9681
-4.2640 5.7825 -2.0339 0.9706
-4.7677 5.3747 -2.0339 0.9706
-5.2326 4.9232 -2.0339 0.9706
-5.6550 4.4316 -2.0339 0.9706
-6.0313 3.9040 -2.0339 0.9706
-6.3585 3.3446 -2.0339 0.9706
-6.6339 2.7580 -2.0339 0.9706
-6.8555 2.1490 -2.0339 0.9706
-7.0212 1.5225 -2.0339 0.9706
-7.1298 0.8836 -2.0338 0.9706
-7.1726 -0.4105 -2.0338 0.9706
-6.9824 -1.6913 -2.0338 0.9706
-6.8015 -2.3136 -2.0338 0.9706
-6.5654 -2.9171 -2.0338 0.9706
-6.2758 -3.4968 -2.0338 0.9706
-3.9246 5.3222 -2.0339 0.9727
-4.8161 4.5313 -2.0339 0.9727
-5.2048 4.0788 -2.0339 0.9727
-5.5511 3.5932 -2.0339 0.9727
-5.8523 3.0783 -2.0339 0.9727
-6.5623 0.8132 -2.0339 0.9727
-6.6088 0.2186 -2.0338 0.9727
-6.6016 -0.3779 -2.0338 0.9727
-6.5407 -0.9712 -2.0338 0.9727
-5.7762 -3.2185 -2.0338 0.9727
-4.0604 4.5774 -2.0339 0.9745
-5.6498 2.3488 -2.0339 0.9745
-5.8385 1.8302 -2.0339 0.9745
-5.9796 1.2966 -2.0339 0.9745
-6.0721 0.7525 -2.0339 0.9745
-6.1152 0.2022 -2.0339 0.9745
-6.1086 -0.3496 -2.0338 0.9745
-3.3755 4.5776 -2.0339 0.9761
-4.1423 3.8974 -2.0339 0.9761
-5.4270 1.7012 -2.0339 0.9761
-5.6843 0.1880 -2.0339 0.9761
-5.6781 -0.3250 -2.0338 0.9761
-5.5275 -1.3389 -2.0338 0.9761
-3.8655 3.6369 -2.0339 0.9775
-4.4555 2.8840 -2.0339 0.9775
-4.6972 2.4708 -2.0339 0.9775
-5.1868 1.1247 -2.0339 0.9775
-5.2497 -0.7795 -2.0338 0.9775
-5.1581 -1.2494 -2.0338 0.9775
-5.0245 -1.7091 -2.0338 0.9775
-3.2978 3.7177 -2.0339 0.9788
-4.3981 2.3134 -2.0339 0.9788
-2.1209 0.4598 -0.8882 0.9907
-4.3410 -2.4188 -2.0338 0.9788
-2.7697 3.7562 -2.0339 0.9798
-3.3989 3.1979 -2.0339 0.9798
-3.9177 2.5359 -2.0339 0.9798
-2.0986 0.6578 -0.9585 0.9904
-1.9031 0.4126 -0.8487 0.9915
-1.9188 0.0634 -0.8367 0.9917
-1.9174 -0.1098 -0.8370 0.9917
-1.9038 -0.2827 -0.8388 0.9916
-1.8994 -0.4601 -0.8517 0.9915
-4.2647 -1.8949 -2.0338 0.9798
-4.0766 -2.2715 -2.0338 0.9798
-1.5845 0.0524 -0.7339 0.9930
-1.5954 -0.0913 -0.7397 0.9930
-1.6105 -0.2392 -0.7537 0.9928
-1.7179 -0.5844 -0.8399 0.9920
-3.0199 2.8413 -2.0339 0.9817
-3.2636 2.5576 -2.0339 0.9817
-3.6696 1.9303 -2.0339 0.9817
-3.8286 1.5917 -2.0339 0.9817
-1.2898 0.4043 -0.6630 0.9940
-1.3521 0.1675 -0.6683 0.9939
-1.3455 0.0445 -0.6604 0.9940
-1.3504 -0.0773 -0.6635 0.9940
-1.3484 -0.2003 -0.6687 0.9939
-1.3202 -0.3198 -0.6663 0.9940
-3.6220 -2.0181 -2.0338 0.9817
-2.3268 3.1554 -2.0339 0.9825
-3.2912 2.1304 -2.0339 0.9825
-3.4698 1.8251 -2.0339 0.9825
-1.1971 0.0396 -0.6214 0.9946
-1.1945 -0.1774 -0.6265 0.9946
-1.1058 -0.4914 -0.6278 0.9946
-3.4247 -1.9082 -2.0338 0.9825
-2.2039 2.9888 -2.0339 0.9832
-2.4643 2.7780 -2.0339 0.9832
-1.1673 0.6140 -0.7224 0.9940
-1.0084 0.4192 -0.5981 0.9950
-1.0550 0.2287 -0.5912 0.9951
-1.0764 0.1334 -0.5940 0.9951
-1.0800 0.0357 -0.5918 0.9951
-1.0813 -0.0619 -0.5932 0.9951
-1.0467 -0.2536 -0.5898 0.9951
-1.0283 -0.3498 -0.5949 0.9951
-3.2439 -1.8074 -2.0339 0.9832
-2.5657 2.4140 -2.0339 0.9839
-2.7728 2.1730 -2.0339 0.9839
-2.9573 1.9143 -2.0339 0.9839
-0.9055 0.4763 -0.5907 0.9953
-0.9345 0.3885 -0.5843 0.9953
-0.9716 0.2106 -0.5740 0.9954
-0.9859 0.1221 -0.5736 0.9954
-0.9900 0.0327 -0.5719 0.9954
-0.9831 -0.1460 -0.5738 0.9954
-0.9656 -0.2339 -0.5736 0.9954
-0.8965 -0.4996 -0.5925 0.9953
