ply
format ascii 1.0
element vertex 192
property float32 x
property float32 y
property float32 z
property float32 I
end_header
-12.0187 13.1093 3.1360 0.9303
-11.4920 12.5347 2.6052 0.9335
-11.3355 12.3640 2.1843 0.9346
-11.4584 12.4979 1.8207 0.9341
-12.9843 11.8230 1.8857 0.9318
-11.5832 12.6342 1.4510 0.9335
-12.0225 13.1134 0.3005 0.9313
-12.0312 13.1229 -0.1002 0.9313
-17.2897 5.1197 -0.9145 0.9303
-16.7496 4.9598 -1.2808 0.9323
-11.9971 13.0857 -1.7044 0.9311
-16.7089 4.9478 -1.6730 0.9324
-6.3743 15.8928 -2.0340 0.9333
-7.7791 15.2542 -2.0340 0.9334
-9.1207 14.4918 -2.0340 0.9334
-11.5713 12.6212 -2.0339 0.9334
-14.5221 9.0708 -2.0339 0.9334
-15.2796 7.7266 -2.0339 0.9334
-15.9129 6.3195 -2.0338 0.9334
-16.7878 3.3636 -2.0338 0.9334
-17.0223 1.8386 -2.0338 0.9334
-16.8944 -2.7757 -2.0337 0.9334
-16.5759 -4.2853 -2.0337 0.9334
-5.3439 13.3236 -2.0340 0.9437
-8.7089 11.4114 -2.0340 0.9437
-12.1746 7.6046 -2.0339 0.9437
-12.8097 6.4776 -2.0339 0.9437
-13.3407 5.2981 -2.0338 0.9437
-13.7634 4.0755 -2.0338 0.9437
-14.3516 0.2504 -2.0338 0.9437
-14.1637 -2.3271 -2.0338 0.9437
-13.8966 -3.5927 -2.0337 0.9437
-5.6091 10.9990 -2.0340 0.9512
-7.4904 9.8147 -2.0339 0.9512
-9.8400 7.4567 -2.0339 0.9512
-11.0174 5.5713 -2.0339 0.9512
-11.4742 4.5568 -2.0339 0.9512
-12.2742 1.3258 -2.0338 0.9512
-5.7639 9.1583 -2.0340 0.9569
-6.5650 8.6022 -2.0339 0.9569
-8.6243 6.5355 -2.0339 0.9569
-10.6096 2.1258 -2.0338 0.9569
-10.7579 1.1620 -2.0338 0.9569
-10.8187 0.1888 -2.0338 0.9569
-10.7918 -0.7859 -2.0338 0.9569
-4.3714 8.5720 -2.0340 0.9614
-5.1254 8.1436 -2.0339 0.9614
-5.8376 7.6491 -2.0339 0.9614
-7.1146 6.4782 -2.0339 0.9614
-7.6688 5.8114 -2.0339 0.9614
-8.5865 4.3420 -2.0339 0.9614
-9.2258 2.7319 -2.0339 0.9614
-9.4343 1.8903 -2.0338 0.9614
-9.5961 -0.6988 -2.0338 0.9614
-3.2217 8.0323 -2.0340 0.9651
-3.9317 7.7096 -2.0340 0.9651
-4.6097 7.3243 -2.0339 0.9651
-5.8483 6.3789 -2.0339 0.9651
-6.3988 5.8265 -2.0339 0.9651
-7.3398 4.5846 -2.0339 0.9651
-7.7227 3.9052 -2.0339 0.9651
-8.2977 2.4571 -2.0339 0.9651
-8.6037 0.9293 -2.0338 0.9651
-8.6524 0.1510 -2.0338 0.9651
-8.6308 -0.6286 -2.0338 0.9651
-8.3782 -2.1660 -2.0338 0.9651
-2.9243 7.2910 -2.0340 0.9681
-3.5688 6.9981 -2.0339 0.9681
-4.1843 6.6484 -2.0339 0.9681
-5.3086 5.7903 -2.0339 0.9681
-5.8082 5.2888 -2.0339 0.9681
-6.6624 4.1615 -2.0339 0.9681
-7.0100 3.5448 -2.0339 0.9681
-7.5320 2.2303 -2.0339 0.9681
-7.7021 1.5432 -2.0339 0.9681
-7.8097 0.8436 -2.0338 0.9681
-7.8343 -0.5706 -2.0338 0.9681
-7.7512 -1.2735 -2.0338 0.9681
-7.6050 -1.9662 -2.0338 0.9681
-3.2640 6.4005 -2.0339 0.9706
-4.3588 5.7114 -2.0339 0.9706
-4.8552 5.2958 -2.0339 0.9706
-5.3122 4.8372 -2.0339 0.9706
-5.7262 4.3393 -2.0339 0.9706
-7.0444 1.4114 -2.0339 0.9706
-7.1833 0.1254 -2.0338 0.9706
-7.0893 -1.1648 -2.0338 0.9706
-6.9556 -1.7982 -2.0338 0.9706
-3.0042 5.8910 -2.0339 0.9727
-3.5223 5.5966 -2.0339 0.9727
-4.0118 5.2567 -2.0339 0.9727
-4.4688 4.8742 -2.0339 0.9727
-4.8893 4.4521 -2.0339 0.9727
-5.6084 3.5031 -2.0339 0.9727
-5.9010 2.9840 -2.0339 0.9727
-6.3404 1.8775 -2.0339 0.9727
-6.4836 1.2991 -2.0339 0.9727
-6.5743 0.7101 -2.0339 0.9727
-6.5249 -1.0721 -2.0338 0.9727
-6.4019 -1.6551 -2.0338 0.9727
-2.2778 5.6791 -2.0339 0.9745
-2.7798 5.4510 -2.0339 0.9745
-3.2592 5.1786 -2.0339 0.9745
-4.1350 4.5101 -2.0339 0.9745
-5.1895 3.2415 -2.0339 0.9745
-5.4602 2.7611 -2.0339 0.9745
-5.6867 2.2583 -2.0339 0.9745
-5.8668 1.7372 -2.0339 0.9745
-5.9993 1.2021 -2.0339 0.9745
-6.1177 0.1068 -2.0338 0.9745
-6.0376 -0.9920 -2.0338 0.9745
-2.1173 5.2788 -2.0339 0.9761
-2.5839 5.0668 -2.0339 0.9761
-3.0295 4.8136 -2.0339 0.9761
-3.4506 4.5213 -2.0339 0.9761
-4.2054 3.8292 -2.0339 0.9761
-5.2859 2.0992 -2.0339 0.9761
-5.6545 0.6108 -2.0339 0.9761
-5.6723 -0.4131 -2.0338 0.9761
-5.5063 -1.4236 -2.0338 0.9761
-1.9758 4.9261 -2.0339 0.9775
-2.4112 4.7282 -2.0339 0.9775
-2.8271 4.4919 -2.0339 0.9775
-3.2200 4.2191 -2.0339 0.9775
-4.7363 2.3950 -2.0339 0.9775
-5.0889 1.5069 -2.0339 0.9775
-5.2039 1.0427 -2.0339 0.9775
-5.2766 0.5699 -2.0339 0.9775
-5.2932 -0.3855 -2.0339 0.9775
-5.1383 -1.3284 -2.0338 0.9775
-3.9607 3.0014 -2.0339 0.9788
-4.7649 1.4110 -2.0339 0.9788
-2.1123 0.2281 -0.8695 0.9909
-2.1224 0.0370 -0.8688 0.9909
-2.1198 -0.1544 -0.8699 0.9909
-2.1166 -0.3478 -0.8779 0.9908
-4.8112 -1.2438 -2.0338 0.9788
-2.4858 3.9497 -2.0339 0.9798
-2.8313 3.7099 -2.0339 0.9798
-3.1538 3.4400 -2.0339 0.9798
-3.4507 3.1421 -2.0339 0.9798
-3.7195 2.8187 -2.0339 0.9798
-3.9582 2.4724 -2.0339 0.9798
-4.1646 2.1060 -2.0339 0.9798
-1.9187 0.0335 -0.8364 0.9917
-1.9156 -0.1395 -0.8371 0.9917
-1.9379 -0.5010 -0.8723 0.9913
-1.9962 3.9144 -2.0339 0.9808
-2.6657 3.4930 -2.0339 0.9808
-3.2489 2.9583 -2.0339 0.9808
-1.5419 0.4565 -0.7443 0.9929
-1.6006 0.3207 -0.7556 0.9928
-1.6082 0.1737 -0.7487 0.9929
-1.6110 -0.2647 -0.7557 0.9928
-1.5696 -0.4058 -0.7504 0.9929
-2.2086 3.5093 -2.0339 0.9817
-2.8021 3.0563 -2.0339 0.9817
-3.5167 2.1966 -2.0339 0.9817
-3.7001 1.8711 -2.0339 0.9817
-1.2979 0.3843 -0.6640 0.9940
-1.3339 0.2672 -0.6673 0.9940
-1.3523 -0.0985 -0.6651 0.9940
-1.3133 -0.3396 -0.6654 0.9940
-1.4595 3.6388 -2.0339 0.9825
-2.0883 3.3181 -2.0339 0.9825
-3.1247 2.3679 -2.0339 0.9825
-3.3252 2.0770 -2.0339 0.9825
-3.4986 1.7692 -2.0339 0.9825
-1.1220 0.4456 -0.6263 0.9946
-1.1505 0.3406 -0.6225 0.9946
-1.2002 -0.0874 -0.6243 0.9946
-1.6871 3.3082 -2.0339 0.9832
-2.5095 2.7372 -2.0339 0.9832
-2.7457 2.5002 -2.0339 0.9832
-2.9597 2.2428 -2.0339 0.9832
-3.1496 1.9673 -2.0339 0.9832
-1.0139 0.4027 -0.5975 0.9950
-1.0362 0.3068 -0.5919 0.9951
-1.0784 0.1164 -0.5941 0.9951
-1.0782 0.0188 -0.5906 0.9951
-1.0690 -0.1757 -0.5934 0.9951
-1.8764 2.9815 -2.0339 0.9839
-2.1372 2.8004 -2.0339 0.9839
-2.3807 2.5967 -2.0339 0.9839
-2.6047 2.3718 -2.0339 0.9839
-2.8077 2.1277 -2.0339 0.9839
-2.9879 1.8662 -2.0339 0.9839
-0.9567 0.2833 -0.5761 0.9954
-0.9874 0.1066 -0.5734 0.9954
-0.9895 -0.0721 -0.5728 0.9954
-0.9809 -0.1612 -0.5739 0.9954
-0.9613 -0.2486 -0.5732 0.9954
