ply
format ascii 1.0
element vertex 184
property float32 x
property float32 y
property float32 z
property float32 I
end_header
-16.4747 5.7046 -0.8842 0.9326
-12.9150 -8.3182 -0.7791 0.9403
-16.2939 5.6420 -1.2643 0.9332
-16.0317 5.5512 -1.6288 0.9341
-16.1793 5.6023 -2.0338 0.9334
-17.0886 1.0554 -2.0338 0.9334
-16.9990 -2.0399 -2.0337 0.9334
-16.7448 -3.5687 -2.0337 0.9334
-16.3534 -5.0683 -2.0337 0.9334
-15.8279 -6.5263 -2.0337 0.9334
-15.1728 -7.9309 -2.0337 0.9334
-12.4881 -11.7113 -2.0337 0.9334
-11.3779 -12.7926 -2.0337 0.9334
-7.5279 -15.3765 -2.0337 0.9334
-13.5640 4.6967 -2.0338 0.9437
-14.2514 -1.7102 -2.0338 0.9437
-12.0670 -7.7721 -2.0337 0.9437
-10.4697 -9.8184 -2.0337 0.9437
-8.5299 -11.5436 -2.0337 0.9437
-6.3112 -12.8912 -2.0337 0.9437
-12.3404 -0.3564 -2.0338 0.9512
-12.2575 -1.4709 -2.0338 0.9512
-11.7920 -3.6546 -2.0338 0.9512
-10.9408 -5.7188 -2.0337 0.9512
-9.0049 -8.4448 -2.0337 0.9512
-6.4086 -10.5514 -2.0337 0.9512
-9.8630 4.4507 -2.0339 0.9569
-10.5032 2.6014 -2.0338 0.9569
-10.6954 1.6409 -2.0338 0.9569
-10.7998 0.6670 -2.0338 0.9569
-10.5825 -2.2554 -2.0338 0.9569
-10.0032 -4.1246 -2.0338 0.9569
-9.0966 -5.8589 -2.0338 0.9569
-8.5295 -6.6575 -2.0338 0.9569
-5.6170 -9.2479 -2.0337 0.9569
-4.7577 -9.7180 -2.0338 0.9569
-9.0921 3.1483 -2.0339 0.9614
-9.4102 -2.0055 -2.0338 0.9614
-9.1902 -2.8483 -2.0338 0.9614
-8.5269 -4.4570 -2.0338 0.9614
-8.0888 -5.2098 -2.0338 0.9614
-7.0181 -6.5815 -2.0338 0.9614
-6.3942 -7.1893 -2.0338 0.9614
-5.7179 -7.7380 -2.0338 0.9614
-4.2306 -8.6413 -2.0338 0.9614
-7.8880 3.5595 -2.0339 0.9651
-8.5536 1.3123 -2.0338 0.9651
-8.6373 0.5334 -2.0338 0.9651
-8.5920 -1.0310 -2.0338 0.9651
-8.4636 -1.8038 -2.0338 0.9651
-8.2657 -2.5618 -2.0338 0.9651
-8.0002 -3.2987 -2.0338 0.9651
-7.6691 -4.0087 -2.0338 0.9651
-6.8216 -5.3244 -2.0338 0.9651
-4.4923 -7.3962 -2.0338 0.9651
-3.8050 -7.7721 -2.0338 0.9651
-7.4229 2.5703 -2.0339 0.9681
-7.6248 1.8885 -2.0339 0.9681
-7.7643 1.1912 -2.0338 0.9681
-7.8402 0.4842 -2.0338 0.9681
-7.6825 -1.6373 -2.0338 0.9681
-7.2620 -2.9943 -2.0338 0.9681
-6.6038 -4.2534 -2.0338 0.9681
-6.1921 -4.8331 -2.0338 0.9681
-5.7296 -5.3733 -2.0338 0.9681
-6.5486 2.9551 -2.0339 0.9706
-6.7890 2.3508 -2.0339 0.9706
-6.9737 1.7272 -2.0339 0.9706
-7.1013 1.0895 -2.0339 0.9706
-7.1707 0.4428 -2.0338 0.9706
-7.1813 -0.2074 -2.0338 0.9706
-7.0264 -1.4975 -2.0338 0.9706
-6.3669 -3.3280 -2.0338 0.9706
-6.0399 -3.8902 -2.0338 0.9706
-5.2404 -4.9144 -2.0338 0.9706
-4.7745 -5.3681 -2.0338 0.9706
-4.2695 -5.7779 -2.0338 0.9706
-3.7295 -6.1404 -2.0338 0.9706
-3.1589 -6.4524 -2.0338 0.9706
-6.0273 2.7198 -2.0339 0.9727
-6.2485 2.1636 -2.0339 0.9727
-6.6096 -0.1909 -2.0338 0.9727
-5.8601 -3.0631 -2.0338 0.9727
-4.8233 -4.5232 -2.0338 0.9727
-4.3945 -4.9408 -2.0338 0.9727
-2.9075 -5.9388 -2.0338 0.9727
-5.5771 2.5167 -2.0339 0.9745
-5.7818 2.0020 -2.0339 0.9745
-5.9392 1.4710 -2.0339 0.9745
-6.1069 0.3772 -2.0339 0.9745
-5.9841 -1.2754 -2.0338 0.9745
-5.8442 -1.8113 -2.0338 0.9745
-5.6565 -2.3324 -2.0338 0.9745
-5.4224 -2.8343 -2.0338 0.9745
-4.0662 -4.5718 -2.0338 0.9745
-3.6362 -4.9208 -2.0338 0.9745
-5.1841 2.3394 -2.0339 0.9761
-5.5206 1.3673 -2.0339 0.9761
-5.6216 0.8625 -2.0339 0.9761
-5.6766 0.3505 -2.0339 0.9761
-5.6468 -0.6776 -2.0338 0.9761
-5.0403 -2.6346 -2.0338 0.9761
-4.4834 -3.4993 -2.0338 0.9761
-4.1486 -3.8904 -2.0338 0.9761
-3.7797 -4.2497 -2.0338 0.9761
-2.9524 -4.8609 -2.0338 0.9761
-2.5007 -5.1080 -2.0338 0.9761
-4.8376 2.1830 -2.0339 0.9775
-5.0152 1.7366 -2.0339 0.9775
-5.2460 0.8048 -2.0339 0.9775
-5.0694 -1.5711 -2.0338 0.9775
-4.9065 -2.0231 -2.0338 0.9775
-4.1837 -3.2655 -2.0338 0.9775
-3.5271 -3.9656 -2.0338 0.9775
-2.7551 -4.5361 -2.0338 0.9775
-2.1667 0.5366 -0.9136 0.9904
-2.1212 0.1310 -0.8698 0.9909
-2.1211 -0.4521 -0.8876 0.9907
-3.9173 -3.0576 -2.0338 0.9788
-3.6248 -3.3993 -2.0338 0.9788
-3.3026 -3.7132 -2.0338 0.9788
-2.5797 -4.2473 -2.0338 0.9788
-2.1851 -4.4632 -2.0338 0.9788
-1.9079 0.4725 -0.8566 0.9915
-1.9042 0.2921 -0.8396 0.9916
-1.9189 -0.0554 -0.8366 0.9917
-1.9057 -0.2287 -0.8365 0.9917
-2.0878 -0.6471 -0.9526 0.9905
-4.3143 -1.7789 -2.0338 0.9798
-4.1358 -2.1618 -2.0338 0.9798
-3.9234 -2.5270 -2.0338 0.9798
-2.7734 -3.7532 -2.0338 0.9798
-1.7703 0.6129 -0.8672 0.9918
-1.6104 0.2470 -0.7541 0.9928
-1.5970 0.0986 -0.7406 0.9930
-1.5823 -0.0457 -0.7328 0.9930
-4.0621 -1.6749 -2.0338 0.9808
-3.8940 -2.0354 -2.0338 0.9808
-3.6939 -2.3792 -2.0338 0.9808
-3.2050 -3.0056 -2.0338 0.9808
-2.6112 -3.5337 -2.0338 0.9808
-2.2809 -3.7554 -2.0338 0.9808
-1.9320 -3.9463 -2.0338 0.9808
-3.7794 1.7054 -2.0339 0.9817
-1.3180 0.3264 -0.6660 0.9940
-1.3473 0.2067 -0.6686 0.9939
-1.3525 -0.1623 -0.6682 0.9939
-1.3303 -0.2836 -0.6672 0.9940
-3.8332 -1.5806 -2.0338 0.9817
-3.6745 -1.9207 -2.0338 0.9817
-3.2685 -2.5512 -2.0338 0.9817
-2.4641 -3.3347 -2.0338 0.9817
-1.8231 -3.7240 -2.0338 0.9817
-1.1032 0.4978 -0.6279 0.9946
-1.1670 0.2890 -0.6237 0.9946
-1.1966 -0.0346 -0.6210 0.9946
-1.1450 -0.3549 -0.6219 0.9946
-3.4745 -1.8161 -2.0339 0.9825
-3.0905 -2.4122 -2.0338 0.9825
-2.6054 -2.9294 -2.0338 0.9825
-1.7238 -3.5211 -2.0338 0.9825
-0.9971 0.4499 -0.5992 0.9950
-1.0453 0.2588 -0.5898 0.9951
-1.0713 0.1643 -0.5936 0.9951
-1.0813 0.0667 -0.5934 0.9951
-1.0795 -0.0312 -0.5915 0.9951
-1.0769 -0.1293 -0.5941 0.9951
-1.0561 -0.2251 -0.5914 0.9951
-1.0340 -0.3205 -0.5929 0.9951
-2.9273 -2.2848 -2.0338 0.9832
-2.7087 -2.5402 -2.0338 0.9832
-2.4679 -2.7747 -2.0338 0.9832
-1.9277 -3.1739 -2.0338 0.9832
-1.6328 -3.3352 -2.0338 0.9832
-0.9254 0.4176 -0.5862 0.9953
-0.9491 0.3286 -0.5799 0.9954
-0.9642 0.2388 -0.5735 0.9954
-0.9898 0.0611 -0.5726 0.9954
-0.9863 -0.1184 -0.5735 0.9954
-0.9724 -0.2073 -0.5740 0.9954
-0.9065 -0.4738 -0.5905 0.9953
-2.9616 -1.9075 -2.0339 0.9839
-2.0935 -2.8332 -2.0339 0.9839
-1.8288 -3.0109 -2.0339 0.9839
